ply
format ascii 1.0
comment VCGLIB generated
element vertex 640
property float x
property float y
property float z
property float nx
property float ny
property float nz
property uchar red
property uchar green
property uchar blue
property uchar alpha
element face 0
property list uchar int vertex_indices
end_header
0.00272763 0.127655 -0.232202 0.383836 0.908331 0.166144 255 255 255 255 
-0.0272757 0.147996 -0.227328 0.68299 0.502441 0.530168 255 255 255 255 
-0.0160877 0.137295 -0.229535 0.604402 0.717044 0.347199 255 255 255 255 
-0.0219691 0.142504 -0.228482 0.680793 0.578283 0.449566 255 255 255 255 
-0.0360468 0.15722 -0.225274 0.491869 0.625079 0.606087 255 255 255 255 
-0.0410076 0.157341 -0.223452 0.389569 0.706332 0.591043 255 255 255 255 
-0.0289439 0.149851 -0.226883 0.691016 0.488846 0.532472 255 255 255 255 
-0.0340075 0.155458 -0.225618 0.644662 0.538828 0.542287 255 255 255 255 
-0.0330179 0.152565 -0.223923 0.673519 0.545429 0.498878 255 255 255 255 
-0.0297369 0.148809 -0.224805 0.709585 0.50638 0.489968 255 255 255 255 
-0.0264099 0.145081 -0.225664 0.663876 0.583835 0.467338 255 255 255 255 
-0.0229224 0.140667 -0.224235 0.647818 0.646542 0.402884 255 255 255 255 
-0.0162727 0.136442 -0.227274 0.575641 0.756239 0.311032 255 255 255 255 
-0.024522 0.143339 -0.226107 0.670227 0.59552 0.44289 255 255 255 255 
0.003052 0.126277 -0.227602 0.399007 0.882623 0.248537 255 255 255 255 
0.00997496 0.123986 -0.227233 0.302061 0.92462 0.232027 255 255 255 255 
-0.0210275 0.13891 -0.224619 0.617661 0.691588 0.374435 255 255 255 255 
-0.0186753 0.137283 -0.224826 0.576636 0.748646 0.32714 255 255 255 255 
-0.0337512 0.15156 -0.221852 0.692275 0.538747 0.480111 255 255 255 255 
-0.0281678 0.146932 -0.225295 0.692127 0.54641 0.471589 255 255 255 255 
-0.0139584 0.134818 -0.227487 0.545571 0.794156 0.267711 255 255 255 255 
0.000312567 0.127697 -0.227553 0.414586 0.88074 0.228945 255 255 255 255 
-0.0055134 0.1305 -0.227629 0.434585 0.877646 0.202173 255 255 255 255 
-0.0224512 0.141599 -0.226384 0.66496 0.621866 0.413656 255 255 255 255 
-0.0186121 0.138067 -0.22707 0.605325 0.711417 0.357026 255 255 255 255 
-0.00850135 0.13186 -0.227623 0.455039 0.866296 0.206082 255 255 255 255 
-0.0347835 0.154425 -0.223538 0.628096 0.571835 0.527731 255 255 255 255 
-0.0206068 0.139815 -0.226766 0.635193 0.664567 0.39355 255 255 255 255 
-0.00275585 0.129023 -0.227615 0.42712 0.880439 0.205901 255 255 255 255 
0.00613534 0.124999 -0.227555 0.334049 0.910428 0.243993 255 255 255 255 
-0.0357011 0.153366 -0.22152 0.627835 0.586321 0.511909 255 255 255 255 
-0.0320552 0.149724 -0.222328 0.691646 0.544447 0.474556 255 255 255 255 
-0.0383531 0.154995 -0.221418 0.474141 0.667611 0.574009 255 255 255 255 
-0.0314648 0.150672 -0.224412 0.699646 0.511674 0.498683 255 255 255 255 
-0.0301781 0.147916 -0.222694 0.698685 0.548182 0.459713 255 255 255 255 
-0.0286544 0.146008 -0.223169 0.687168 0.578105 0.439994 255 255 255 255 
-0.0267534 0.144216 -0.223524 0.670778 0.606374 0.427044 255 255 255 255 
-0.0248207 0.142452 -0.223887 0.660648 0.625197 0.41554 255 255 255 255 
-0.00240958 0.127632 -0.222989 0.441393 0.845135 0.301528 255 255 255 255 
0.00637823 0.123595 -0.222986 0.285032 0.905153 0.315364 255 255 255 255 
0.00318158 0.124826 -0.223059 0.385141 0.868613 0.311735 255 255 255 255 
-0.0358889 0.152495 -0.219248 0.571195 0.62221 0.535342 255 255 255 255 
-0.0252281 0.141539 -0.221716 0.648518 0.651021 0.394456 255 255 255 255 
-0.0188799 0.136426 -0.222578 0.548472 0.775956 0.311561 255 255 255 255 
-0.00529325 0.129809 -0.225284 0.441849 0.866903 0.230757 255 255 255 255 
-0.0309702 0.146895 -0.220648 0.698305 0.57064 0.432135 255 255 255 255 
-0.0213605 0.138023 -0.222426 0.607561 0.710908 0.354232 255 255 255 255 
0.00649506 0.124385 -0.225204 0.300357 0.915112 0.26899 255 255 255 255 
-0.0234326 0.13974 -0.222125 0.627891 0.676833 0.384252 255 255 255 255 
-0.0163648 0.135659 -0.225055 0.53463 0.790724 0.298205 255 255 255 255 
-0.0136313 0.134165 -0.225127 0.494945 0.83018 0.256577 255 255 255 255 
-0.0109807 0.132667 -0.225236 0.470517 0.850654 0.234523 255 255 255 255 
0.000508308 0.127053 -0.225305 0.422585 0.864708 0.271481 255 255 255 255 
-0.0733227 0.154266 -0.225857 -0.10238 0.811958 0.574667 255 255 255 255 
-0.052737 0.155002 -0.221636 -0.0813559 0.72621 0.682643 255 255 255 255 
-0.0490149 0.153546 -0.221306 -0.0598849 0.730236 0.680566 255 255 255 255 
0.00327545 0.125629 -0.22532 0.392895 0.877526 0.274922 255 255 255 255 
-0.0344333 0.150587 -0.219799 0.674878 0.564282 0.475527 255 255 255 255 
-0.0327095 0.148718 -0.220197 0.709438 0.547191 0.444161 255 255 255 255 
0.0104374 0.123359 -0.224762 0.27635 0.918865 0.281636 255 255 255 255 
-0.00241277 0.128397 -0.225268 0.425784 0.869537 0.250226 255 255 255 255 
-0.0272285 0.143285 -0.221375 0.666882 0.631795 0.3951 255 255 255 255 
-0.013635 0.133365 -0.222798 0.476701 0.835485 0.273353 255 255 255 255 
-0.0108106 0.13195 -0.222899 0.453283 0.851723 0.262873 255 255 255 255 
-0.0293272 0.145003 -0.221055 0.680711 0.605541 0.412253 255 255 255 255 
-0.00793394 0.13054 -0.222935 0.43974 0.856751 0.269456 255 255 255 255 
0.00036335 0.126235 -0.223068 0.429562 0.850545 0.303396 255 255 255 255 
-0.0163989 0.134873 -0.222782 0.502047 0.816434 0.28528 255 255 255 255 
-0.00837228 0.131165 -0.225355 0.451325 0.862168 0.230155 255 255 255 255 
-0.00516507 0.129082 -0.222961 0.439447 0.85449 0.277009 255 255 255 255 
-0.0893258 0.150777 -0.224782 -0.0279761 0.902412 0.429964 255 255 255 255 
-0.0766642 0.152541 -0.224472 -0.103354 0.818536 0.565081 255 255 255 255 
-0.0670186 0.152697 -0.22258 -0.108447 0.781249 0.614727 255 255 255 255 
-0.0350554 0.149608 -0.217684 0.596007 0.609887 0.522316 255 255 255 255 
0.0107161 0.122742 -0.222479 0.284416 0.899673 0.331204 255 255 255 255 
-0.087147 0.15224 -0.226621 -0.0757479 0.86556 0.495043 255 255 255 255 
-0.0331108 0.147815 -0.218038 0.658466 0.602083 0.451574 255 255 255 255 
-0.0213356 0.137264 -0.220154 0.564778 0.755205 0.332703 255 255 255 255 
-0.0163149 0.134148 -0.220509 0.492254 0.818148 0.297187 255 255 255 255 
-0.0135358 0.13265 -0.220531 0.455812 0.838357 0.298986 255 255 255 255 
-0.0023407 0.126927 -0.220754 0.430228 0.832132 0.349942 255 255 255 255 
-0.037346 0.15136 -0.217523 0.497106 0.650111 0.574666 255 255 255 255 
-0.0314055 0.145995 -0.218523 0.680355 0.598762 0.422612 255 255 255 255 
-0.0108215 0.131185 -0.220639 0.461749 0.835821 0.296969 255 255 255 255 
-0.0480721 0.153222 -0.219083 -0.0639968 0.742332 0.666969 255 255 255 255 
-0.0570163 0.153014 -0.220577 -0.0967725 0.74155 0.663881 255 255 255 255 
-0.029558 0.144155 -0.218851 0.674515 0.62038 0.400198 255 255 255 255 
-0.0275786 0.142393 -0.219192 0.659769 0.642645 0.389502 255 255 255 255 
-0.0256825 0.14062 -0.219571 0.653532 0.64971 0.388296 255 255 255 255 
-0.0236838 0.138925 -0.219989 0.615362 0.699455 0.363445 255 255 255 255 
-0.00804916 0.129762 -0.220744 0.444176 0.841206 0.308352 255 255 255 255 
-0.00518861 0.128317 -0.220709 0.43205 0.841 0.325655 255 255 255 255 
0.000275552 0.125459 -0.22085 0.420866 0.835607 0.353034 255 255 255 255 
0.00314927 0.124089 -0.220858 0.377654 0.855873 0.353354 255 255 255 255 
0.00644201 0.12287 -0.220717 0.281793 0.888838 0.361331 255 255 255 255 
-0.0190413 0.135628 -0.220393 0.53186 0.790373 0.304032 255 255 255 255 
0.010322 0.121852 -0.220348 0.283518 0.88766 0.362874 255 255 255 255 
-0.0164273 0.133324 -0.21824 0.485234 0.818526 0.30751 255 255 255 255 
-0.0337333 0.146853 -0.215952 0.643975 0.623346 0.44355 255 255 255 255 
-0.00538787 0.12748 -0.21849 0.448427 0.810195 0.377489 255 255 255 255 
-0.0701394 0.151014 -0.221122 -0.0861082 0.802742 0.590077 255 255 255 255 
-0.0358067 0.148606 -0.215632 0.509959 0.650222 0.563164 255 255 255 255 
0.0096125 0.120889 -0.218383 0.277845 0.881803 0.381086 255 255 255 255 
-0.0391467 0.149961 -0.215611 0.440163 0.672976 0.59444 255 255 255 255 
-0.0907488 0.149555 -0.222789 -0.00178549 0.917494 0.397745 255 255 255 255 
-0.0402393 0.149012 -0.213911 0.16393 0.748145 0.642966 255 255 255 255 
0.00288105 0.123254 -0.218703 0.364039 0.856722 0.365382 255 255 255 255 
-0.0531713 0.150842 -0.218016 -0.0848009 0.739096 0.668241 255 255 255 255 
0.00604874 0.121964 -0.218553 0.277646 0.884726 0.374395 255 255 255 255 
-0.013608 0.131883 -0.218321 0.456908 0.829975 0.319964 255 255 255 255 
-0.0814733 0.149557 -0.221071 -0.0911001 0.851266 0.516766 255 255 255 255 
-0.0240077 0.138025 -0.217769 0.594371 0.721361 0.355473 255 255 255 255 
-0.00817963 0.128956 -0.218516 0.439747 0.824861 0.355285 255 255 255 255 
-0.000226349 0.124529 -0.218741 0.407846 0.831338 0.377544 255 255 255 255 
-0.0261769 0.139684 -0.217431 0.65097 0.660685 0.373809 255 255 255 255 
-0.0990928 0.149912 -0.224328 0.00909435 0.934852 0.354921 255 255 255 255 
-0.0564172 0.149127 -0.216644 -0.0895487 0.745357 0.660623 255 255 255 255 
-0.0612039 0.151036 -0.21946 -0.111095 0.745148 0.657581 255 255 255 255 
-0.0319378 0.145041 -0.21638 0.666032 0.633038 0.394544 255 255 255 255 
-0.0484832 0.149723 -0.217503 -0.0677725 0.741995 0.666972 255 255 255 255 
-0.0190873 0.134838 -0.218124 0.512055 0.80172 0.308293 255 255 255 255 
-0.00276959 0.126043 -0.21866 0.448678 0.806668 0.384676 255 255 255 255 
-0.011044 0.130346 -0.218436 0.45705 0.82297 0.337381 255 255 255 255 
-0.0298333 0.14329 -0.216651 0.668685 0.640557 0.377555 255 255 255 255 
-0.0477409 0.149204 -0.215098 -0.0658909 0.745975 0.662706 255 255 255 255 
-0.0215307 0.136411 -0.217907 0.537311 0.776917 0.328172 255 255 255 255 
-0.0279824 0.141483 -0.21702 0.656942 0.648892 0.383885 255 255 255 255 
-0.0216694 0.135656 -0.215778 0.527082 0.772945 0.353185 255 255 255 255 
-0.0137922 0.131053 -0.216102 0.473137 0.806541 0.354448 255 255 255 255 
-0.0111762 0.129554 -0.216235 0.467945 0.798552 0.378606 255 255 255 255 
-0.0343532 0.145902 -0.213884 0.564402 0.653338 0.504579 255 255 255 255 
-0.0302949 0.142374 -0.214518 0.653173 0.639266 0.405838 255 255 255 255 
-0.0368377 0.147539 -0.213689 0.469662 0.679275 0.563917 255 255 255 255 
-0.0264603 0.138849 -0.215289 0.630045 0.680398 0.374303 255 255 255 255 
-0.0165695 0.132517 -0.216024 0.478634 0.806593 0.346867 255 255 255 255 
-0.00844064 0.128081 -0.216286 0.452264 0.795412 0.403458 255 255 255 255 
-0.0190461 0.134079 -0.215836 0.480505 0.803571 0.351268 255 255 255 255 
-0.00574803 0.126612 -0.216357 0.442758 0.780706 0.44098 255 255 255 255 
-0.0284139 0.140593 -0.214908 0.656237 0.647463 0.387485 255 255 255 255 
-0.0243454 0.13716 -0.215618 0.574155 0.731971 0.366831 255 255 255 255 
-0.0322793 0.144155 -0.2142 0.62364 0.644304 0.442657 255 255 255 255 
-0.0491316 0.206204 -0.280332 0.633593 0.649227 0.42079 255 255 255 255 
-0.0499837 0.205162 -0.278339 0.590419 0.665473 0.456674 255 255 255 255 
0.00656813 0.132829 -0.253406 0.378106 0.714467 0.588705 255 255 255 255 
-0.0485778 0.196326 -0.268002 0.494201 0.696987 0.519592 255 255 255 255 
-0.0450937 0.184128 -0.253553 0.404349 0.742974 0.533378 255 255 255 255 
0.00691789 0.136829 -0.256776 0.377303 0.540714 0.751845 255 255 255 255 
-0.0490185 0.201237 -0.274249 0.568872 0.689267 0.44866 255 255 255 255 
-0.0479965 0.186658 -0.255936 0.3468 0.762559 0.546108 255 255 255 255 
-0.0483928 0.191531 -0.262116 0.448783 0.726847 0.519892 255 255 255 255 
-0.0466241 0.182978 -0.251889 0.362214 0.762491 0.536105 255 255 255 255 
-0.0420874 0.176828 -0.245306 0.314701 0.751933 0.579276 255 255 255 255 
-0.0439735 0.175466 -0.243573 0.261036 0.741726 0.617821 255 255 255 255 
-0.0455752 0.174242 -0.241846 0.230204 0.760658 0.606965 255 255 255 255 
-0.0718726 0.156699 -0.228304 -0.127201 0.76318 0.633543 255 255 255 255 
-0.0620838 0.156802 -0.22607 -0.143157 0.742118 0.654803 255 255 255 255 
0.00485456 0.12296 -0.242539 0.670089 0.742226 0.00904797 255 255 255 255 
-0.0400813 0.164496 -0.231532 0.330219 0.706774 0.625641 255 255 255 255 
0.00829703 0.123348 -0.223398 0.282036 0.905553 0.316906 255 255 255 255 
-0.0654764 0.155061 -0.224817 -0.131243 0.748296 0.650252 255 255 255 255 
-0.0923274 0.151082 -0.22636 -0.0734516 0.896724 0.436452 255 255 255 255 
0.011538 0.120639 -0.218813 0.252784 0.892437 0.373707 255 255 255 255 
-0.0933976 0.149942 -0.224301 -0.0264129 0.905682 0.423134 255 255 255 255 
-0.0585575 0.149688 -0.217749 -0.127718 0.746482 0.653033 255 255 255 255 
0.00771666 0.120855 -0.216894 0.246191 0.887902 0.388613 255 255 255 255 
-0.0819232 0.151385 -0.224199 -0.130597 0.827331 0.546322 255 255 255 255 
-0.0686077 0.153401 -0.223496 -0.120491 0.757006 0.642202 255 255 255 255 
-0.0413415 0.153858 -0.218143 0.189234 0.760081 0.621665 255 255 255 255 
-0.0910505 0.15236 -0.228488 -0.0946615 0.882177 0.461305 255 255 255 255 
-0.0414439 0.154492 -0.220201 0.358728 0.718496 0.595883 255 255 255 255 
-0.0761442 0.154609 -0.227108 -0.115259 0.769098 0.628653 255 255 255 255 
-0.0597733 0.153402 -0.221761 -0.133813 0.735424 0.664263 255 255 255 255 
-0.079461 0.147019 -0.217307 -0.0384322 0.861214 0.506788 255 255 255 255 
-0.0945472 0.146115 -0.214966 0.0501656 0.936781 0.346303 255 255 255 255 
0.0070188 0.118398 -0.210562 0.221912 0.91056 0.348762 255 255 255 255 
-0.0802029 0.146005 -0.215232 -0.0169017 0.883155 0.468776 255 255 255 255 
-0.0879523 0.145453 -0.214082 0.0488791 0.925414 0.375793 255 255 255 255 
-0.0537838 0.147729 -0.214826 -0.109744 0.746362 0.656429 255 255 255 255 
-0.072898 0.145565 -0.214026 -0.0389391 0.851876 0.522294 255 255 255 255 
-0.0812056 0.144845 -0.213106 0.01286 0.89882 0.43813 255 255 255 255 
-0.0612506 0.143157 -0.210178 -0.0194055 0.806999 0.590234 255 255 255 255 
-0.0561646 0.146297 -0.213352 -0.0831358 0.752329 0.653521 255 255 255 255 
-0.087203 0.146544 -0.216291 0.00298613 0.908409 0.418072 255 255 255 255 
-0.0377387 0.142805 -0.205996 0.467296 0.666561 0.580802 255 255 255 255 
-0.0942819 0.147958 -0.219746 0.00316337 0.914848 0.403786 255 255 255 255 
-0.0660874 0.145052 -0.212998 -0.0227929 0.830095 0.557155 255 255 255 255 
-0.0716186 0.146763 -0.215993 -0.0671529 0.828809 0.555488 255 255 255 255 
-0.0940099 0.148867 -0.222013 -0.0238775 0.912137 0.40919 255 255 255 255 
0.00715685 0.119187 -0.212709 0.237589 0.900784 0.363509 255 255 255 255 
-0.0940365 0.147179 -0.217312 0.0434601 0.928185 0.369572 255 255 255 255 
-0.0867988 0.147474 -0.218491 -0.0292414 0.892616 0.449868 255 255 255 255 
-0.0896885 0.141451 -0.197002 0.289716 0.907996 0.302667 255 255 255 255 
0.00289732 0.117028 -0.204321 0.213753 0.924478 0.315675 255 255 255 255 
-0.0879017 0.144609 -0.211689 0.0797489 0.934539 0.34681 255 255 255 255 
0.00304705 0.118599 -0.208715 0.232918 0.903264 0.360365 255 255 255 255 
0.00707477 0.116157 -0.20391 0.160149 0.943607 0.289754 255 255 255 255 
0.00296885 0.114816 -0.197711 0.170646 0.918034 0.357902 255 255 255 255 
-0.000861883 0.118776 -0.206732 0.263896 0.893346 0.36372 255 255 255 255 
-0.00449845 0.11912 -0.204746 0.290746 0.89019 0.350755 255 255 255 255 
-0.000824571 0.11804 -0.204517 0.244062 0.910133 0.334802 255 255 255 255 
0.00683832 0.117578 -0.208403 0.20482 0.92413 0.32254 255 255 255 255 
-0.094592 0.145273 -0.212645 0.075557 0.938148 0.337891 255 255 255 255 
0.0112884 0.115318 -0.203476 0.143288 0.951866 0.27096 255 255 255 255 
0.0122179 0.11341 -0.196594 0.0997479 0.930813 0.351622 255 255 255 255 
-0.0941878 0.144493 -0.210096 0.102082 0.948034 0.301348 255 255 255 255 
0.00292408 0.117802 -0.206542 0.218855 0.918287 0.329927 255 255 255 255 
0.00721163 0.115429 -0.201619 0.137698 0.946422 0.292105 255 255 255 255 
0.00740701 0.114807 -0.199454 0.117793 0.941257 0.31648 255 255 255 255 
0.00316364 0.11561 -0.199812 0.190641 0.925981 0.325907 255 255 255 255 
0.00722432 0.114001 -0.197324 0.104653 0.932816 0.344822 255 255 255 255 
0.0118453 0.112557 -0.194561 0.0947615 0.915777 0.390349 255 255 255 255 
0.00691098 0.11686 -0.206185 0.197151 0.932243 0.303404 255 255 255 255 
0.0119002 0.111857 -0.192398 0.0816945 0.910787 0.404713 255 255 255 255 
0.01077 0.115917 -0.205902 0.155521 0.948807 0.274917 255 255 255 255 
-0.0193908 -0.224063 -0.259919 0.887055 0.308932 -0.343067 255 255 255 255 
0.00848937 0.101055 -0.17274 -0.0446291 0.796621 0.602829 255 255 255 255 
-0.0134259 -0.228129 -0.25181 0.991523 0.0879141 -0.0956756 255 255 255 255 
0.00771588 0.106673 -0.18279 0.0661814 0.849026 0.524189 255 255 255 255 
-0.0229142 0.0818067 -0.158995 -0.0274846 0.568534 0.822201 255 255 255 255 
-0.0167296 -0.216075 -0.250939 0.925243 0.268888 -0.267629 255 255 255 255 
-0.0278067 0.055861 -0.153909 0.946733 0.178734 0.267865 255 255 255 255 
-0.00261635 0.112183 -0.189679 0.17027 0.876757 0.449784 255 255 255 255 
0.00989616 0.109707 -0.188731 0.105087 0.876902 0.469042 255 255 255 255 
0.00648975 0.0957764 -0.167636 -0.0289806 0.719202 0.694196 255 255 255 255 
-0.00365859 0.0897546 -0.163844 -0.0443815 0.596073 0.801703 255 255 255 255 
-0.040023 0.0650655 -0.149217 0.776907 0.442313 0.448079 255 255 255 255 
0.00942934 0.108144 -0.184654 0.111435 0.847833 0.518422 255 255 255 255 
-0.0290876 0.0850734 -0.161018 -0.0613319 0.562416 0.824577 255 255 255 255 
-0.0704993 0.106977 -0.165162 0.386719 0.272404 0.881048 255 255 255 255 
-0.0169406 0.0817265 -0.158452 -0.0380042 0.573449 0.818359 255 255 255 255 
-0.0145684 -0.218423 -0.248665 0.952373 0.21588 -0.215362 255 255 255 255 
-0.0691883 0.101647 -0.164305 0.327153 0.362548 0.872657 255 255 255 255 
-0.0292637 0.0991425 -0.170818 0.0526394 0.584304 0.809826 255 255 255 255 
0.00603616 0.09942 -0.171269 -0.0333707 0.78018 0.624664 255 255 255 255 
-0.0299222 0.0981443 -0.168752 -0.00864219 0.564763 0.825208 255 255 255 255 
0.000378609 0.0920488 -0.165009 -0.0405337 0.622727 0.781388 255 255 255 255 
-0.0316058 0.108519 -0.177592 0.111813 0.611772 0.783092 255 255 255 255 
0.0106954 0.10335 -0.176477 -0.0192568 0.848154 0.5294 255 255 255 255 
-0.0247104 0.0843261 -0.160856 -0.0292493 0.561514 0.82695 255 255 255 255 
-0.028559 0.0821797 -0.159681 -0.030408 0.552332 0.83307 255 255 255 255 
0.00645298 0.105535 -0.181079 0.0372139 0.842781 0.536969 255 255 255 255 
0.0094282 0.102086 -0.174561 -0.0281957 0.82675 0.561863 255 255 255 255 
0.00361204 0.0939699 -0.166261 -0.0412556 0.66662 0.744255 255 255 255 255 
-0.0216159 -0.15823 -0.205798 0.841977 0.355399 -0.405914 255 255 255 255 
-0.0242451 0.0219826 -0.147763 0.936132 0.103055 0.336208 255 255 255 255 
-0.0245715 0.0392789 -0.14938 0.948763 0.131675 0.287247 255 255 255 255 
-0.0194301 -0.177612 -0.220595 0.872203 0.307545 -0.380365 255 255 255 255 
-0.02189 -0.13003 -0.182811 0.873658 0.276373 -0.400424 255 255 255 255 
-0.0202225 -0.160462 -0.20643 0.843612 0.359264 -0.399059 255 255 255 255 
-0.0258371 -0.071794 -0.135133 0.738131 0.44339 -0.508496 255 255 255 255 
-0.0229547 -0.138854 -0.191123 0.801341 0.358666 -0.478759 255 255 255 255 
0.192709 0.126969 -0.037902 0.0276333 0.991729 0.125339 255 255 255 255 
0.159714 0.12923 -0.0347053 0.135457 0.912592 0.385781 255 255 255 255 
0.178819 0.126079 -0.032844 0.0745564 0.967115 0.243168 255 255 255 255 
0.187447 0.126524 -0.0329892 -0.000478149 0.992971 0.118361 255 255 255 255 
0.191187 0.126545 -0.0331534 0.00506453 0.994125 0.108123 255 255 255 255 
0.161818 0.126271 -0.0287676 0.0788847 0.921764 0.379641 255 255 255 255 
-0.0269998 0.0304289 -0.142989 0.912524 0.122154 0.390356 255 255 255 255 
-0.0198858 -0.131802 -0.183186 0.846811 0.33879 -0.410039 255 255 255 255 
-0.0192732 -0.157185 -0.202505 0.846601 0.317741 -0.426974 255 255 255 255 
-0.0250843 0.0423216 -0.150919 0.929022 0.156685 0.335214 255 255 255 255 
-0.0204356 -0.154816 -0.20178 0.865272 0.311869 -0.392483 255 255 255 255 
-0.0202 -0.137609 -0.187791 0.804523 0.348179 -0.481158 255 255 255 255 
-0.0191411 -0.139992 -0.188533 0.855 0.28672 -0.432165 255 255 255 255 
-0.0182605 -0.142513 -0.189312 0.847613 0.346308 -0.402024 255 255 255 255 
-0.0169883 -0.167833 -0.208677 0.962142 0.187182 -0.198106 255 255 255 255 
-0.0243634 0.0245435 -0.147004 0.930045 0.120335 0.347183 255 255 255 255 
-0.0375461 0.0652131 -0.14625 0.763277 0.429836 0.482338 255 255 255 255 
-0.0207308 -0.18128 -0.224798 0.821452 0.378532 -0.426533 255 255 255 255 
-0.0172777 -0.156409 -0.199298 0.910794 0.220769 -0.348878 255 255 255 255 
-0.0181586 -0.159596 -0.203236 0.841961 0.35537 -0.405973 255 255 255 255 
0.158306 0.126049 -0.0271049 0.104893 0.907327 0.40713 255 255 255 255 
0.189059 0.126248 -0.0297962 0.00976077 0.994826 0.101126 255 255 255 255 
0.155175 0.126461 -0.0268299 0.0741427 0.904079 0.420885 255 255 255 255 
0.123517 0.121334 -0.0181181 0.0421327 0.733351 0.678543 255 255 255 255 
0.161938 0.125423 -0.0259171 0.0718806 0.929252 0.362387 255 255 255 255 
0.193249 0.126483 -0.0299223 0.010453 0.994527 0.103954 255 255 255 255 
-0.0446648 0.205298 -0.329014 0.713964 0.633846 -0.297481 255 255 255 255 
-0.0304581 0.196748 -0.328433 0.688762 0.662681 0.294044 255 255 255 255 
-0.0491862 0.213706 -0.326212 0.723959 0.618403 -0.305714 255 255 255 255 
-0.0468755 0.208295 -0.331537 0.73085 0.619985 -0.285442 255 255 255 255 
-0.0453175 0.20615 -0.331843 0.703136 0.643276 -0.302977 255 255 255 255 
-0.0476105 0.213091 -0.323073 0.748786 0.624227 -0.222845 255 255 255 255 
-0.0438872 0.209199 -0.323782 0.730059 0.627417 -0.270854 255 255 255 255 
-0.0422418 0.207176 -0.324173 0.780024 0.565316 -0.268291 255 255 255 255 
-0.0454603 0.211155 -0.323226 0.719375 0.640445 -0.268942 255 255 255 255 
-0.0543834 0.226017 -0.312797 0.830066 0.547368 0.106674 255 255 255 255 
-0.0157212 0.180349 -0.320223 0.584768 0.781829 0.216307 255 255 255 255 
-0.0117139 0.177179 -0.314571 0.59513 0.784268 0.175339 255 255 255 255 
-0.0518846 0.221679 -0.299627 0.872262 0.47381 0.121088 255 255 255 255 
-0.00887439 0.172151 -0.305006 0.528594 0.842457 0.104188 255 255 255 255 
0.0041796 0.165616 -0.279149 0.463842 0.848455 0.254903 255 255 255 255 
0.00632566 0.158382 -0.271363 0.7396 0.523267 0.4233 255 255 255 255 
0.00463396 0.161882 -0.275624 0.670411 0.658923 0.341129 255 255 255 255 
0.00452524 0.138457 -0.263 0.506341 0.471961 0.721714 255 255 255 255 
0.00556064 0.138055 -0.260421 0.50633 0.471947 0.721731 255 255 255 255 
0.00433606 0.140732 -0.262018 0.534657 0.409377 0.739292 255 255 255 255 
-0.0485868 0.141172 -0.207251 -0.010281 0.716854 0.697148 255 255 255 255 
-0.0445068 0.179852 -0.24806 0.330758 0.758905 0.560948 255 255 255 255 
0.00404668 0.130489 -0.256381 0.589069 0.556649 0.585781 255 255 255 255 
-0.035644 0.127586 -0.192506 0.0799205 0.708189 0.701485 255 255 255 255 
0.00171143 0.131915 -0.256019 0.788776 0.468999 0.397332 255 255 255 255 
-0.0416112 0.165788 -0.229458 0.352937 0.713504 0.605266 255 255 255 255 
-0.0398363 0.160002 -0.226483 0.428372 0.666869 0.60974 255 255 255 255 
-0.054773 0.155706 -0.223538 -0.128524 0.728534 0.672845 255 255 255 255 
0.0078069 0.124391 -0.226697 0.390192 0.888602 0.241117 255 255 255 255 
-0.061716 0.152106 -0.221201 -0.118887 0.734302 0.668331 255 255 255 255 
-0.0466432 0.146686 -0.212583 -0.0585438 0.718443 0.693118 255 255 255 255 
-0.0522268 0.143338 -0.209687 -0.0353078 0.743452 0.667857 255 255 255 255 
-0.0459293 0.142857 -0.208809 -0.0203709 0.699497 0.714345 255 255 255 255 
-0.0267824 0.194958 -0.338508 0.67047 -0.269695 0.691184 255 255 255 255 
-0.0227926 0.193555 -0.337818 0.613318 -0.163617 0.772703 255 255 255 255 
-0.0299658 0.196238 -0.330262 0.658103 0.703736 0.267685 255 255 255 255 
-0.0526157 0.226493 -0.308316 0.910137 0.402678 0.0974769 255 255 255 255 
-0.0527161 0.226115 -0.314493 0.907161 0.410747 0.091353 255 255 255 255 
-0.0365776 0.200984 -0.327455 0.726801 0.673661 0.133943 255 255 255 255 
-0.0447863 0.208577 -0.326408 0.729464 0.646873 -0.222347 255 255 255 255 
-0.0164357 0.186929 -0.327519 0.362242 0.768359 0.527641 255 255 255 255 
-0.0335715 0.199222 -0.327125 0.721607 0.664411 0.194527 255 255 255 255 
-0.0515682 0.225031 -0.317718 0.914235 0.404971 0.0131386 255 255 255 255 
-0.0513532 0.223991 -0.314958 0.908852 0.412645 0.0609232 255 255 255 255 
-0.0370946 0.196509 -0.30101 0.754006 0.64875 0.102952 255 255 255 255 
-0.0138133 0.174465 -0.312856 0.659407 0.742603 0.117143 255 255 255 255 
-0.0141367 0.178426 -0.316623 0.679682 0.711582 0.177997 255 255 255 255 
-0.0482702 0.207226 -0.282289 0.684529 0.637162 0.354181 255 255 255 255 
-0.0393093 0.202638 -0.328149 0.600327 0.771221 -0.211721 255 255 255 255 
-0.0490016 0.216703 -0.323981 0.84369 0.494945 -0.207888 255 255 255 255 
-0.0468186 0.210314 -0.326795 0.753393 0.557657 -0.348451 255 255 255 255 
-0.045727 0.203864 -0.330434 0.677537 0.630153 -0.379276 255 255 255 255 
-0.00474152 0.171196 -0.295227 0.287465 0.954142 0.0835281 255 255 255 255 
0.00637501 0.162534 -0.273913 0.509137 0.733981 0.449502 255 255 255 255 
0.00653976 0.148521 -0.26503 0.727154 0.120627 0.675793 255 255 255 255 
-0.0465921 0.187843 -0.2579 0.391619 0.740317 0.546412 255 255 255 255 
0.00566697 0.147446 -0.263229 0.757413 0.0612085 0.650061 255 255 255 255 
-0.0763527 0.151122 -0.222763 -0.103772 0.816804 0.567506 255 255 255 255 
-0.0702883 0.149439 -0.219446 -0.0930785 0.790125 0.605837 255 255 255 255 
-0.0681916 0.150875 -0.220986 -0.119523 0.75644 0.64305 255 255 255 255 
-0.0580618 0.15628 -0.224365 -0.121676 0.713487 0.690022 255 255 255 255 
-0.0814719 0.154027 -0.228112 -0.0976978 0.824816 0.556896 255 255 255 255 
-0.0121309 0.133567 -0.227064 0.49511 0.837174 0.23239 255 255 255 255 
-0.0611081 0.154567 -0.223133 -0.136027 0.720137 0.680367 255 255 255 255 
-0.0471932 0.181749 -0.250106 0.273386 0.76784 0.57938 255 255 255 255 
-0.0834652 0.152599 -0.226478 -0.0827107 0.833855 0.545752 255 255 255 255 
-0.0708583 0.154377 -0.225478 -0.139494 0.766158 0.627331 255 255 255 255 
-0.0729471 0.15296 -0.223957 -0.143853 0.785828 0.601482 255 255 255 255 
-0.0455802 0.17809 -0.246123 0.22766 0.764915 0.602558 255 255 255 255 
-0.0661156 0.156508 -0.22611 -0.133286 0.734117 0.665813 255 255 255 255 
-0.0644706 0.152811 -0.222068 -0.133897 0.733992 0.665828 255 255 255 255 
-0.085132 0.151244 -0.224717 -0.0620745 0.854856 0.515139 255 255 255 255 
-0.0858878 0.150148 -0.222675 -0.0428994 0.859173 0.509884 255 255 255 255 
-0.0777156 0.149868 -0.220941 -0.103771 0.816828 0.567472 255 255 255 255 
-0.0824143 0.131279 -0.179751 0.3781 0.847333 0.372918 255 255 255 255 
-0.0889799 0.139516 -0.19358 0.338173 0.891771 0.300638 255 255 255 255 
-0.0188754 -0.163444 -0.207864 0.901014 0.262759 -0.345153 255 255 255 255 
-0.0138845 -0.260679 -0.28631 0.968522 0.187481 -0.163755 255 255 255 255 
-0.0131372 -0.269199 -0.280425 0.998141 0.0556527 0.024862 255 255 255 255 
0.194845 0.127428 -0.0434769 0.0570099 0.987483 0.147065 255 255 255 255 
0.192747 0.127151 -0.0402725 0.0478307 0.989938 0.133171 255 255 255 255 
-0.0646996 0.0952621 -0.160233 0.18391 0.698355 0.691721 255 255 255 255 
-0.0158208 -0.254921 -0.284445 0.941097 0.236621 -0.241549 255 255 255 255 
-0.0250591 0.0209194 -0.141044 0.935235 0.0865353 0.343289 255 255 255 255 
-0.0245498 0.00948688 -0.140092 0.928595 0.0776705 0.362876 255 255 255 255 
0.159529 0.124881 -0.025278 0.0493064 0.919877 0.389094 255 255 255 255 
-0.0221405 0.0778843 -0.157317 -0.025578 0.518239 0.854853 255 255 255 255 
-0.0213811 -0.164538 -0.211392 0.850091 0.325686 -0.413853 255 255 255 255 
-0.0237728 -0.145947 -0.19661 0.780305 0.391649 -0.48758 255 255 255 255 
-0.0203614 -0.149861 -0.197717 0.786289 0.407967 -0.464017 255 255 255 255 
-0.018075 -0.154586 -0.199159 0.908426 0.280975 -0.309541 255 255 255 255 
-0.0261555 -0.190326 -0.209716 0.706147 -0.320121 0.631569 255 255 255 255 
-0.0165654 -0.148523 -0.191442 0.96951 0.176237 -0.17027 255 255 255 255 
0.155972 0.125115 -0.0251329 0.0759664 0.90875 0.410368 255 255 255 255 
-0.0676114 0.097602 -0.162404 0.248145 0.580918 0.775215 255 255 255 255 
-0.013078 -0.263675 -0.28738 0.980976 0.164933 -0.102388 255 255 255 255 
0.16392 0.126085 -0.0283818 0.0670251 0.924425 0.375427 255 255 255 255 
-0.014944 -0.234852 -0.264781 0.993816 0.052924 -0.0976148 255 255 255 255 
-0.0162844 -0.22579 -0.258881 0.987212 0.134951 -0.084852 255 255 255 255 
-0.023619 -0.0783748 -0.144514 0.985397 0.0524439 0.161996 255 255 255 255 
0.106094 0.117714 -0.0164631 -0.0290668 0.629053 0.776819 255 255 255 255 
0.167235 0.122222 -0.0181423 0.00381622 0.955216 0.295885 255 255 255 255 
0.162524 0.123945 -0.0240481 0.0443425 0.939759 0.33895 255 255 255 255 
0.158997 0.120976 -0.0147227 0.00699336 0.93716 0.348829 255 255 255 255 
0.154526 0.120207 -0.0129837 0.0190183 0.934538 0.355355 255 255 255 255 
0.110784 0.123139 -0.0203473 -0.0290689 0.629077 0.776799 255 255 255 255 
0.167217 0.123235 -0.0211163 0.00378315 0.955214 0.295893 255 255 255 255 
0.115097 0.123059 -0.0206045 -0.0290807 0.629112 0.776771 255 255 255 255 
0.158893 0.121955 -0.017712 -0.00131525 0.9404 0.340069 255 255 255 255 
0.150586 0.120763 -0.0142632 0.0190101 0.934533 0.355369 255 255 255 255 
0.105919 0.120101 -0.0175898 -0.0291037 0.629105 0.776776 255 255 255 255 
0.155337 0.122644 -0.0189469 0.0503151 0.928972 0.366714 255 255 255 255 
0.114196 0.125135 -0.0217999 -0.0287117 0.641134 0.766892 255 255 255 255 
0.155444 0.123797 -0.0220736 0.0616552 0.922623 0.380743 255 255 255 255 
0.16315 0.123159 -0.0209393 0.00719459 0.941736 0.336277 255 255 255 255 
0.171317 0.123339 -0.0212665 0.0258095 0.95429 0.297766 255 255 255 255 
0.108235 0.121578 -0.0189889 -0.0290785 0.629108 0.776774 255 255 255 255 
0.163909 0.122429 -0.0178202 -0.0173976 0.951275 0.307853 255 255 255 255 
0.171382 0.122399 -0.0183867 0.00379325 0.95523 0.295841 255 255 255 255 
0.151583 0.122303 -0.0173224 0.0407545 0.927413 0.371812 255 255 255 255 
0.154939 0.121417 -0.0159398 0.0190384 0.934565 0.355283 255 255 255 255 
-0.0281065 0.192118 -0.338869 0.730181 -0.197034 0.654228 255 255 255 255 
-0.0239473 0.19087 -0.338197 0.681615 -0.144345 0.717332 255 255 255 255 
-0.0485322 0.210498 -0.327796 0.750461 0.619249 -0.230955 255 255 255 255 
-0.0377015 0.202386 -0.324956 0.729183 0.67554 0.109266 255 255 255 255 
-0.00158474 0.169832 -0.286747 0.246515 0.959894 0.133543 255 255 255 255 
-0.00718957 0.169421 -0.277838 0.27945 0.943418 0.178521 255 255 255 255 
-0.00115037 0.16912 -0.284309 0.246686 0.956746 0.154219 255 255 255 255 
-0.000388771 0.168451 -0.281659 0.254659 0.949872 0.18136 255 255 255 255 
-0.0103968 0.179647 -0.315568 0.429444 0.850329 0.304168 255 255 255 255 
-0.00878131 0.170754 -0.283162 0.276179 0.951538 0.135281 255 255 255 255 
-0.00480935 0.169559 -0.282557 0.260307 0.954526 0.145331 255 255 255 255 
-0.00376263 0.168946 -0.279754 0.255043 0.950423 0.1779 255 255 255 255 
-0.0523784 0.219235 -0.297853 0.819214 0.562925 0.109564 255 255 255 255 
-0.0499895 0.20333 -0.276639 0.574921 0.671548 0.467428 255 255 255 255 
-0.00292659 0.168295 -0.277077 0.262161 0.939017 0.222528 255 255 255 255 
-0.00265884 0.167495 -0.274664 0.305636 0.910273 0.279267 255 255 255 255 
-0.0384753 0.152564 -0.218708 0.536541 0.643293 0.546167 255 255 255 255 
-0.0422301 0.1588 -0.224783 0.316896 0.712039 0.62656 255 255 255 255 
-0.0537257 0.152195 -0.219621 -0.0896825 0.740722 0.665798 255 255 255 255 
-0.039117 0.156469 -0.222483 0.397702 0.679446 0.616592 255 255 255 255 
-0.0393687 0.151513 -0.216851 0.532815 0.65066 0.541064 255 255 255 255 
-0.0560655 0.150681 -0.218123 -0.0868419 0.740528 0.66639 255 255 255 255 
0.0107494 0.118224 -0.218614 0.399132 0.843097 0.36039 255 255 255 255 
0.00151896 0.136659 -0.259223 0.811828 0.261107 0.522262 255 255 255 255 
-0.0574498 0.154419 -0.222133 -0.0925072 0.72582 0.681636 255 255 255 255 
-0.0160108 0.0881289 -0.163125 -0.0114204 0.568472 0.822623 255 255 255 255 
-0.0224014 -0.142139 -0.193372 0.765788 0.389059 -0.512057 255 255 255 255 
-0.019951 -0.141121 -0.190082 0.765675 0.380919 -0.518307 255 255 255 255 
-0.0363012 0.132355 -0.198536 0.178975 0.71774 0.672917 255 255 255 255 
-0.0194253 0.0860856 -0.161934 -0.0174461 0.5672 0.823395 255 255 255 255 
-0.0619005 0.0921493 -0.156935 0.313977 0.783309 0.536512 255 255 255 255 
-0.0154935 -0.260912 -0.289122 0.960869 0.181973 -0.208846 255 255 255 255 
-0.016366 -0.251209 -0.282436 0.960877 0.181969 -0.208811 255 255 255 255 
-0.0849018 0.134712 -0.184689 0.4476 0.828071 0.33757 255 255 255 255 
-0.0642323 0.14581 -0.213952 -0.0585692 0.808716 0.585276 255 255 255 255 
0.0048247 0.108947 -0.186129 0.111612 0.85415 0.507908 255 255 255 255 
-0.0245877 0.100663 -0.171701 0.0456398 0.612484 0.789165 255 255 255 255 
-0.0209123 0.0886305 -0.16352 -0.011396 0.556201 0.83097 255 255 255 255 
-0.0175039 0.0836934 -0.160198 -0.0146131 0.577844 0.816016 255 255 255 255 
-0.0268652 0.0463242 -0.153169 0.963007 0.154897 0.220508 255 255 255 255 
-0.0180444 -0.12349 -0.175625 0.862774 0.29038 -0.413885 255 255 255 255 
-0.0263948 0.0524682 -0.146002 0.987438 0.110341 0.113097 255 255 255 255 
0.199753 0.126795 -0.040172 0.0607262 0.987832 0.143177 255 255 255 255 
-0.0315448 0.106931 -0.175292 -0.0303425 0.582075 0.812569 255 255 255 255 
-0.0210007 -0.124821 -0.178912 0.862783 0.290368 -0.413873 255 255 255 255 
-0.0862912 0.139385 -0.190995 0.388602 0.870337 0.302494 255 255 255 255 
0.15631 0.130816 -0.0369663 0.103707 0.907842 0.406286 255 255 255 255 
0.00523359 0.109894 -0.188188 0.106692 0.868782 0.483565 255 255 255 255 
-0.0270906 0.0918451 -0.1655 0.000837704 0.548541 0.836124 255 255 255 255 
-0.026183 0.0890404 -0.164038 -0.0150887 0.548294 0.836149 255 255 255 255 
-0.019466 -0.192837 -0.234085 0.936977 0.226141 -0.266335 255 255 255 255 
0.147688 0.128505 -0.0307918 0.0289172 0.892618 0.449885 255 255 255 255 
0.150884 0.127033 -0.0279795 0.0387403 0.893687 0.447015 255 255 255 255 
0.168455 0.129123 -0.0376512 0.142144 0.92944 0.340494 255 255 255 255 
0.1646 0.123807 -0.022523 0.0692831 0.923952 0.376181 255 255 255 255 
0.180276 0.125527 -0.027343 -0.0411086 0.983315 0.177203 255 255 255 255 
0.164842 0.125009 -0.0255466 0.0655333 0.927475 0.368096 255 255 255 255 
0.197152 0.126718 -0.0385106 0.0639702 0.987819 0.14185 255 255 255 255 
0.155882 0.129568 -0.0340127 0.0987845 0.906366 0.410782 255 255 255 255 
0.162227 0.129348 -0.0358511 0.142775 0.916099 0.374669 255 255 255 255 
0.168353 0.126914 -0.0315989 0.107461 0.947121 0.302348 255 255 255 255 
0.179098 0.125563 -0.0290336 -0.0415062 0.981849 0.185069 255 255 255 255 
0.171319 0.127589 -0.0348135 0.152486 0.935198 0.319614 255 255 255 255 
0.162161 0.128212 -0.0327791 0.134879 0.918345 0.372088 255 255 255 255 
0.165139 0.128867 -0.0360153 0.131531 0.925253 0.355819 255 255 255 255 
0.168415 0.128038 -0.0346493 0.116719 0.928456 0.352628 255 255 255 255 
0.152437 0.129866 -0.0338918 0.0796695 0.900895 0.426663 255 255 255 255 
0.182785 0.126515 -0.0319656 -0.03502 0.983143 0.179454 255 255 255 255 
0.195026 0.126902 -0.0368352 0.0551898 0.9902 0.128291 255 255 255 255 
0.160519 0.123731 -0.0223919 0.0592098 0.919185 0.389349 255 255 255 255 
0.15124 0.128258 -0.030956 0.0425861 0.894073 0.445892 255 255 255 255 
0.171942 0.125792 -0.0288439 0.116578 0.954956 0.27289 255 255 255 255 
0.168631 0.125988 -0.0285995 0.0826473 0.939159 0.33339 255 255 255 255 
-0.0789387 0.0629407 -0.0476234 0.848073 0.529558 -0.0184308 255 255 255 255 
-0.0765351 0.059185 -0.0488545 0.852231 0.507936 0.12531 255 255 255 255 
-0.0765698 0.0607216 -0.0460868 0.868864 0.483353 0.106982 255 255 255 255 
-0.0772381 0.0619782 -0.0433483 0.854848 0.480554 0.195712 255 255 255 255 
-0.0760462 0.0601246 -0.0439951 0.849905 0.496506 0.176474 255 255 255 255 
-0.0746774 0.0582773 -0.0445132 0.868854 0.483374 0.106967 255 255 255 255 
-0.0819498 0.0686849 -0.0455164 0.843491 0.532133 -0.0731942 255 255 255 255 
0.184844 0.127461 -0.0378677 0.00555211 0.982013 0.188734 255 255 255 255 
0.152984 0.126215 -0.0263168 0.0190294 0.907187 0.420297 255 255 255 255 
0.188435 0.127415 -0.0377595 0.00556276 0.982017 0.188711 255 255 255 255 
0.181755 0.127223 -0.0364698 0.0117045 0.972483 0.232678 255 255 255 255 
-0.0812468 0.0667268 -0.046372 0.853506 0.520262 0.0292577 255 255 255 255 
0.189868 0.126985 -0.0346391 -0.0184185 0.979972 0.198283 255 255 255 255 
0.147187 0.13 -0.0334131 0.0411961 0.881636 0.470129 255 255 255 255 
-0.0747988 0.0576013 -0.0495534 0.852225 0.507929 0.125378 255 255 255 255 
-0.0265029 0.026944 -0.142846 0.893382 0.133966 0.428861 255 255 255 255 
-0.0887826 0.0792885 -0.0397837 0.783722 0.60901 -0.122011 255 255 255 255 
-0.0752553 0.0588757 -0.0466546 0.868868 0.483352 0.106952 255 255 255 255 
-0.0744708 0.0569074 -0.0474324 0.868859 0.483361 0.106982 255 255 255 255 
-0.0861441 0.0756487 -0.0410376 0.865078 0.50128 0.0189233 255 255 255 255 
-0.0077762 0.0909934 -0.165289 -0.0354092 0.575822 0.816808 255 255 255 255 
-0.0951677 0.0862179 -0.0374055 0.742287 0.613956 -0.268456 255 255 255 255 
-0.0850347 0.0751828 -0.0388047 0.884734 0.4518 0.114555 255 255 255 255 
-0.0816506 0.0695136 -0.0407003 0.89692 0.432753 0.0908776 255 255 255 255 
-0.0766383 0.0614931 -0.0481288 0.866623 0.498552 0.0202777 255 255 255 255 
-0.0805539 0.067632 -0.0413699 0.900785 0.42054 0.10832 255 255 255 255 
-0.0791537 0.0658255 -0.0419416 0.903131 0.397907 0.161318 255 255 255 255 
-0.0782014 0.0639031 -0.0426494 0.880523 0.412978 0.232654 255 255 255 255 
-0.0897679 0.0811663 -0.039016 0.784004 0.619414 -0.040802 255 255 255 255 
-0.0776221 0.0626364 -0.0454324 0.892245 0.422536 0.159253 255 255 255 255 
-0.00605664 0.0885083 -0.163516 -0.0432635 0.573926 0.817764 255 255 255 255 
-0.0815434 0.066504 -0.0395252 0.888065 0.42821 0.167263 255 255 255 255 
-0.0744307 0.0561092 -0.0453573 0.868859 0.483361 0.106986 255 255 255 255 
-0.10448 0.10011 -0.0233391 0.795544 0.596553 0.105993 255 255 255 255 
-0.086913 0.0783158 -0.0355404 0.840057 0.529439 0.118318 255 255 255 255 
-0.0834458 0.0703832 -0.0381669 0.872854 0.480453 0.0853838 255 255 255 255 
-0.0849005 0.0744125 -0.036755 0.884726 0.451793 0.114646 255 255 255 255 
-0.0854334 0.0735163 -0.0349714 0.881967 0.452673 0.13123 255 255 255 255 
-0.0860614 0.0763056 -0.0361579 0.854658 0.51369 0.0753756 255 255 255 255 
-0.0800118 0.0624594 -0.0408887 0.860497 0.401769 0.313252 255 255 255 255 
0.107624 0.114679 -0.0149799 0.0975601 0.491232 0.865548 255 255 255 255 
0.105504 0.113299 -0.0137998 0.0975839 0.49121 0.865558 255 255 255 255 
-0.0870165 0.0752261 -0.0343615 0.84033 0.529452 0.116301 255 255 255 255 
0.10413 0.115046 -0.0147839 0.0975932 0.491221 0.86555 255 255 255 255 
-0.0774554 0.0588489 -0.0422293 0.848439 0.458449 0.264529 255 255 255 255 
-0.0787221 0.0606974 -0.0416258 0.843587 0.458147 0.280111 255 255 255 255 
-0.0837188 0.0726073 -0.0374895 0.859476 0.499052 0.110667 255 255 255 255 
-0.0811485 0.0643538 -0.0402662 0.89374 0.409584 0.182947 255 255 255 255 
-0.100553 0.0946802 -0.0253009 0.788098 0.596288 0.152785 255 255 255 255 
-0.0519497 0.145595 -0.211793 -0.0308706 0.748978 0.661875 255 255 255 255 
0.00248879 0.103024 -0.176923 -0.0132717 0.838698 0.544435 255 255 255 255 
0.00775558 0.102684 -0.176225 0.0132235 0.831128 0.555924 255 255 255 255 
-0.0879664 0.148619 -0.220942 -0.0191063 0.879606 0.475319 255 255 255 255 
-0.0800268 0.148321 -0.219372 -0.0519805 0.852538 0.520075 255 255 255 255 
-0.0505571 0.136966 -0.20217 0.0707406 0.727155 0.682819 255 255 255 255 
-0.059296 0.145924 -0.213278 -0.0710612 0.778811 0.623221 255 255 255 255 
-0.0626379 0.149124 -0.21788 -0.113795 0.758233 0.641977 255 255 255 255 
-0.0706211 0.141545 -0.206813 0.0435284 0.859356 0.509521 255 255 255 255 
-0.0318393 0.120478 -0.187699 0.230488 0.673656 0.702184 255 255 255 255 
-0.0722864 0.147986 -0.217806 -0.0705377 0.81174 0.579744 255 255 255 255 
0.0134616 0.114138 -0.199791 0.159532 0.931434 0.327079 255 255 255 255 
-0.0147945 0.106002 -0.178448 0.148689 0.685172 0.713044 255 255 255 255 
-0.0126108 -0.283977 -0.306141 0.896149 0.315733 -0.311817 255 255 255 255 
-0.0107373 -0.293888 -0.309755 0.910355 0.299449 -0.285629 255 255 255 255 
-0.0113315 -0.310016 -0.31658 0.946359 0.221589 -0.235165 255 255 255 255 
-0.003921 0.102192 -0.175832 0.0159355 0.801341 0.597996 255 255 255 255 
-0.011171 -0.290372 -0.308489 0.910378 0.300397 -0.28456 255 255 255 255 
-0.0128553 0.0841326 -0.160031 -0.0204992 0.572943 0.819339 255 255 255 255 
-0.0108762 -0.297241 -0.314416 0.946362 0.221552 -0.235188 255 255 255 255 
-0.0296059 0.101388 -0.170084 0.0860902 0.580579 0.80964 255 255 255 255 
-0.00570461 0.0960985 -0.168795 -0.00999921 0.638087 0.769899 255 255 255 255 
-0.0268343 0.0969005 -0.169052 0.0605545 0.557715 0.827821 255 255 255 255 
0.000431597 0.100699 -0.173305 -0.0316544 0.812187 0.582538 255 255 255 255 
-0.00483891 0.101075 -0.173989 0.000889471 0.787705 0.616052 255 255 255 255 
0.00151718 0.101876 -0.175084 -0.0142492 0.836954 0.547088 255 255 255 255 
-0.000939429 0.099425 -0.171618 -0.0407847 0.773311 0.632714 255 255 255 255 
-0.00649115 0.099667 -0.172329 -0.0119604 0.762032 0.647429 255 255 255 255 
-0.00266826 0.0980272 -0.170053 -0.0305058 0.731421 0.681243 255 255 255 255 
0.00257331 0.0976682 -0.169388 -0.0218251 0.704683 0.709187 255 255 255 255 
0.00451875 0.0953092 -0.167574 -0.0218367 0.70466 0.709209 255 255 255 255 
-0.00188762 0.0913473 -0.165262 -0.0448643 0.596438 0.801405 255 255 255 255 
-0.0252635 0.0872556 -0.162835 -0.016947 0.541253 0.840689 255 255 255 255 
0.00774175 0.0972863 -0.168695 -0.0104937 0.753953 0.656845 255 255 255 255 
-0.0182265 0.103204 -0.175206 0.138352 0.676256 0.723558 255 255 255 255 
-0.0115292 0.100161 -0.172927 0.0410705 0.719484 0.693293 255 255 255 255 
-0.0126462 -0.301651 -0.322743 0.946353 0.2216 -0.23518 255 255 255 255 
-0.012009 -0.297706 -0.317912 0.946346 0.221616 -0.235192 255 255 255 255 
-0.0111012 -0.300792 -0.31901 0.946347 0.22163 -0.235174 255 255 255 255 
-0.0103447 -0.304037 -0.320178 0.946362 0.221589 -0.235153 255 255 255 255 
-0.00989628 0.10155 -0.17459 0.0664421 0.744699 0.664085 255 255 255 255 
-0.0117064 -0.294138 -0.313234 0.88835 0.329331 -0.319963 255 255 255 255 
-0.0135117 -0.28096 -0.305066 0.89841 0.308478 -0.312572 255 255 255 255 
0.197282 0.127058 -0.0334068 0.00147735 0.99358 0.113126 255 255 255 255 
-0.0197024 -0.197011 -0.236964 0.860134 0.327608 -0.390952 255 255 255 255 
0.154973 0.128142 -0.0314118 0.078227 0.905817 0.416384 255 255 255 255 
-0.0205013 0.0796081 -0.157841 -0.0352434 0.554315 0.831561 255 255 255 255 
0.171426 0.126654 -0.0319299 0.0928697 0.940017 0.328244 255 255 255 255 
-0.0130362 -0.277352 -0.300405 0.958427 0.219193 -0.182683 255 255 255 255 
-0.0522648 0.0795393 -0.146612 0.453948 0.685254 0.569524 255 255 255 255 
-0.0116784 -0.280561 -0.29836 0.95918 0.222146 -0.174999 255 255 255 255 
0.193198 0.126865 -0.0335277 -0.00469431 0.993947 0.109758 255 255 255 255 
-0.0150414 -0.264687 -0.292546 0.941653 0.243333 -0.232549 255 255 255 255 
-0.0599957 0.0896973 -0.153665 0.317753 0.778035 0.541936 255 255 255 255 
0.171886 0.124781 -0.0260966 0.0659073 0.945815 0.317946 255 255 255 255 
0.185629 0.125334 -0.0244403 -0.0380998 0.988423 0.146864 255 255 255 255 
-0.0140307 -0.274433 -0.299415 0.953777 0.231007 -0.192214 255 255 255 255 
-0.0123222 -0.280496 -0.301601 0.89346 0.316923 -0.318259 255 255 255 255 
0.198629 0.12655 -0.0351674 0.00148434 0.99359 0.113035 255 255 255 255 
-0.0124961 -0.273699 -0.295774 0.958852 0.223109 -0.17557 255 255 255 255 
-0.0123111 -0.275398 -0.287158 0.976675 0.175318 -0.123973 255 255 255 255 
-0.0186272 -0.205651 -0.243098 0.908678 0.298664 -0.291725 255 255 255 255 
0.174674 0.126377 -0.0320025 0.113432 0.94683 0.301076 255 255 255 255 
0.174917 0.125434 -0.0290604 0.082934 0.954486 0.286494 255 255 255 255 
-0.0143837 -0.267828 -0.29375 0.962679 0.189202 -0.193524 255 255 255 255 
-0.0424094 0.205085 -0.327962 0.647209 0.710031 -0.277445 255 255 255 255 
-0.0213437 0.189169 -0.32878 0.445927 0.722409 0.528464 255 255 255 255 
-0.0507235 0.222666 -0.317933 0.903398 0.428802 0.000696794 255 255 255 255 
-0.0526082 0.224784 -0.311552 0.835683 0.535408 0.122365 255 255 255 255 
-0.0496732 0.220634 -0.318719 0.913421 0.400768 -0.0710419 255 255 255 255 
-0.00836578 0.1783 -0.315014 0.219688 0.89307 0.392636 255 255 255 255 
-0.0136049 0.17838 -0.314165 0.477593 0.836587 0.268379 255 255 255 255 
-0.0147171 0.171815 -0.27838 0.358854 0.920129 0.156803 255 255 255 255 
-0.0531243 0.159537 -0.227238 -0.125716 0.737178 0.6639 255 255 255 255 
0.00376898 0.128486 -0.249189 0.60228 0.765975 0.224812 255 255 255 255 
-0.0444113 0.185405 -0.255616 0.439496 0.734892 0.516504 255 255 255 255 
-0.0562671 0.157825 -0.226142 -0.113006 0.71489 0.690045 255 255 255 255 
-0.0641626 0.158195 -0.228064 -0.136189 0.729899 0.669851 255 255 255 255 
0.00403857 0.0992061 -0.171137 -0.0335466 0.809161 0.586629 255 255 255 255 
-0.0231949 0.0922206 -0.166153 0.00692533 0.565779 0.824528 255 255 255 255 
-0.0773248 0.127726 -0.172252 0.514965 0.768695 0.379368 255 255 255 255 
-0.0301745 0.102231 -0.172929 0.0613734 0.588152 0.806418 255 255 255 255 
-0.0186124 0.0915701 -0.165733 -0.0123707 0.56408 0.825627 255 255 255 255 
-0.0149981 0.0866674 -0.162261 -0.0181881 0.570678 0.820972 255 255 255 255 
0.0111422 0.115506 -0.212268 0.246949 0.91246 0.326241 255 255 255 255 
-0.00821909 0.0984944 -0.170991 -0.00980722 0.732051 0.68118 255 255 255 255 
-0.0139185 -0.283087 -0.307424 0.97327 0.182495 -0.139434 255 255 255 255 
-0.0286868 0.0784011 -0.1578 -0.0328774 0.529359 0.847761 255 255 255 255 
-0.0363138 0.13669 -0.199751 0.393081 0.682413 0.616279 255 255 255 255 
-0.0542853 0.149229 -0.216304 -0.0747355 0.741061 0.667265 255 255 255 255 
-0.024712 0.0947782 -0.167757 0.0214541 0.57181 0.820105 255 255 255 255 
0.0080688 0.122105 -0.21984 0.257519 0.891692 0.372248 255 255 255 255 
0.00897002 0.0988025 -0.170561 -0.0162169 0.816809 0.57668 255 255 255 255 
-0.00867271 0.103001 -0.176533 0.0961718 0.749691 0.654763 255 255 255 255 
-0.0140712 0.102582 -0.175167 0.123357 0.707367 0.695999 255 255 255 255 
-0.088932 0.146759 -0.217304 0.0330554 0.902004 0.430461 255 255 255 255 
-0.0567571 0.147703 -0.21499 -0.062847 0.75734 0.649989 255 255 255 255 
-0.0129766 0.107648 -0.180216 0.1463 0.693839 0.705112 255 255 255 255 
0.00526452 0.100424 -0.172818 -0.0162263 0.816808 0.576681 255 255 255 255 
-0.0199937 0.0941532 -0.167287 -0.00361433 0.577538 0.816356 255 255 255 255 
0.185646 0.128505 -0.043976 0.0789727 0.982641 0.167868 255 255 255 255 
-0.0275353 0.0439906 -0.144304 0.931652 0.123238 0.341814 255 255 255 255 
-0.0137902 -0.272794 -0.296995 0.97418 0.14299 -0.174722 255 255 255 255 
-0.0119853 -0.287617 -0.296486 0.991962 0.10665 -0.0680979 255 255 255 255 
-0.0131256 -0.292504 -0.298617 0.997751 0.0648988 0.0167556 255 255 255 255 
0.189033 0.128388 -0.0439798 0.0789603 0.982646 0.167848 255 255 255 255 
0.158391 0.12438 -0.0231087 0.0772376 0.921552 0.380494 255 255 255 255 
-0.0117224 -0.298269 -0.304029 0.993072 0.116647 -0.0142126 255 255 255 255 
-0.0111745 -0.275461 -0.291525 0.981799 0.11829 -0.148591 255 255 255 255 
-0.0112258 -0.29282 -0.307812 0.993074 0.116643 -0.0141055 255 255 255 255 
-0.0111248 -0.290116 -0.300363 0.997752 0.0648912 0.0167556 255 255 255 255 
-0.0274236 0.0447354 -0.146306 0.945536 0.186652 0.26669 255 255 255 255 
-0.0263887 0.0244231 -0.142202 0.898218 0.11452 0.424369 255 255 255 255 
-0.0219095 -0.0178433 -0.145154 0.926658 0.0285285 0.374822 255 255 255 255 
0.174892 0.127303 -0.0349573 0.134362 0.946463 0.293522 255 255 255 255 
-0.0116023 -0.283487 -0.29469 0.998514 0.0517269 -0.017162 255 255 255 255 
-0.012646 -0.27734 -0.289529 0.9818 0.118275 -0.14859 255 255 255 255 
-0.01226 -0.28222 -0.303648 0.975684 0.182379 -0.121565 255 255 255 255 
-0.0112652 -0.285771 -0.301794 0.991402 0.108316 -0.07342 255 255 255 255 
-0.0127652 -0.252209 -0.276249 0.899795 0.295154 -0.321329 255 255 255 255 
