ply
format ascii 1.0
comment VCGLIB generated
element vertex 673
property float x
property float y
property float z
property float nx
property float ny
property float nz
property uchar red
property uchar green
property uchar blue
property uchar alpha
element face 0
property list uchar int vertex_indices
end_header
-0.205115 -0.033204 -0.325805 -0.552055 -0.322089 -0.769087 0 0 255 255 
-0.206705 -0.026935 -0.326963 -0.5699 -0.152076 -0.807519 0 0 255 255 
-0.203 -0.024645 -0.331265 0.652295 0.123959 -0.74776 0 0 255 255 
-0.204258 -0.023026 -0.330296 -0.477902 0.084268 -0.874362 0 0 255 255 
-0.20466 -0.019547 -0.327098 -0.429611 0.21908 -0.876036 0 0 255 255 
-0.203666 -0.013438 -0.329078 0.033577 -0.945737 0.323195 0 0 255 255 
-0.201358 -0.010982 -0.327888 -0.386462 0.251907 -0.887237 0 0 255 255 
-0.197197 -0.008678 -0.326798 -0.248594 0.4195 -0.873052 0 0 255 255 
-0.198936 -0.005163 -0.324055 -0.160833 0.569116 -0.806374 0 0 255 255 
-0.197356 -0.00647201 -0.324751 -0.083085 0.624717 -0.776419 0 0 255 255 
-0.193993 -0.00305499 -0.322648 0.501406 -0.778111 0.378332 0 0 255 255 
-0.187392 -2.29925e-005 -0.317805 0.006958 0.708541 -0.705635 0 0 255 255 
-0.18621 -0.000608012 -0.317362 0.04879 0.714679 -0.697749 0 0 255 255 
-0.181491 0.00156398 -0.313515 0.154603 0.677395 -0.719189 0 0 255 255 
-0.177841 0.00639801 -0.309518 0.886723 0.187359 -0.422633 0 0 255 255 
-0.170715 0.006018 -0.30634 0.311504 0.645684 -0.697178 0 0 255 255 
-0.167191 0.00892599 -0.30331 0.343298 0.587148 -0.733078 0 0 255 255 
-0.163556 0.011069 -0.297504 0.388275 0.558722 -0.732852 0 0 255 255 
-0.155519 0.011092 -0.291022 -0.776733 0.613596 0.142077 0 0 255 255 
-0.154488 0.017455 -0.289811 0.497866 -0.856859 0.133873 0 0 255 255 
-0.147717 0.01725 -0.284647 0.89797 0.391326 -0.201279 0 0 255 255 
-0.140295 0.019182 -0.278816 0.425144 -0.896052 -0.127843 0 0 255 255 
-0.13353 0.018931 -0.272186 -0.968447 0.129784 -0.21276 0 0 255 255 
-0.128388 0.022356 -0.270352 0.143756 0.78974 -0.59636 0 0 255 255 
-0.125641 0.023767 -0.265785 -0.049481 0.873006 -0.485193 0 0 255 255 
-0.118841 0.02746 -0.262783 0.073535 -0.984536 0.159003 0 0 255 255 
-0.11313 0.029392 -0.252273 0.231407 -0.937881 0.258516 0 0 255 255 
0.0664741 -0.013922 -0.0844855 0.125501 -0.992016 -0.012396 0 0 255 255 
0.0656513 -0.010866 -0.0856355 0.033131 0.182272 -0.98269 0 0 255 255 
0.0660809 -0.00602402 -0.0833295 0.065623 0.33572 -0.939673 0 0 255 255 
0.0689838 -0.000696018 -0.0820095 0.080454 0.40837 -0.909264 0 0 255 255 
0.073334 0.00158699 -0.0783335 0.093515 0.566415 -0.818797 0 0 255 255 
0.0786306 0.00649099 -0.0759425 0.099838 0.673281 -0.732615 0 0 255 255 
0.0807092 0.00993799 -0.0726325 0.094573 0.742539 -0.663092 0 0 255 255 
0.0890392 0.011129 -0.0681575 0.398431 -0.90818 -0.128304 0 0 255 255 
0.0936904 0.015677 -0.0637355 0.096783 0.841537 -0.531458 0 0 255 255 
0.100255 0.01634 -0.0563455 0.101028 0.86581 -0.490067 0 0 255 255 
0.112174 0.020977 -0.0487775 -0.275244 0.764383 -0.58306 0 0 255 255 
0.117306 0.021713 -0.0425635 0.104746 0.88703 -0.449673 0 0 255 255 
0.129755 0.02536 -0.0362875 -0.131961 -0.732512 -0.667841 0 0 255 255 
0.138123 0.026092 -0.0274305 -0.126686 -0.849716 -0.511794 0 0 255 255 
0.143961 0.029691 -0.0231615 -0.52287 0.434776 0.733196 0 0 255 255 
0.15234 0.032692 -0.0150585 -0.247756 0.940959 -0.230681 0 0 255 255 
0.163152 0.033733 -0.00698048 -0.097391 -0.136353 0.985861 0 0 255 255 
0.173505 0.038914 0.00280151 -0.044739 0.958617 0.28116 0 0 255 255 
0.18903 0.039606 0.0188085 -0.094543 -0.928737 0.358483 0 0 255 255 
0.205616 0.039248 0.0328915 -0.063818 0.781567 0.620549 0 0 255 255 
0.230119 0.042089 0.0515825 -0.075449 -0.415776 0.906332 0 0 255 255 
0.241515 0.045743 0.0644741 -0.186441 -0.366404 0.911585 0 0 255 255 
0.252196 0.044914 0.0732591 -0.833345 -0.507555 0.218916 0 0 255 255 
-0.209285 -0.035562 -0.326463 -0.295469 0.397847 -0.868571 0 0 255 255 
-0.207755 -0.028969 -0.323523 -0.583337 -0.330284 -0.742045 0 0 255 255 
-0.208291 -0.027881 -0.32574 -0.568407 -0.119893 -0.813965 0 0 255 255 
-0.208252 -0.026166 -0.327652 -0.530896 -0.015868 -0.847288 0 0 255 255 
-0.209588 -0.02266 -0.325204 -0.514001 0.057212 -0.85588 0 0 255 255 
-0.207267 -0.0174 -0.326364 -0.456761 0.16061 -0.874971 0 0 255 255 
-0.204725 -0.016501 -0.328162 -0.353061 0.267657 -0.896497 0 0 255 255 
-0.20388 -0.014221 -0.325889 -0.241763 0.519904 -0.819299 0 0 255 255 
-0.202717 -0.00808801 -0.327635 0.392931 -0.862189 0.319744 0 0 255 255 
-0.200256 -0.005316 -0.32625 0.361798 -0.931885 -0.026317 0 0 255 255 
-0.195946 -0.005363 -0.320306 -0.0854601 0.637744 -0.765492 0 0 255 255 
-0.197167 -0.003262 -0.321178 -0.03959 0.643429 -0.764481 0 0 255 255 
-0.191209 -0.00136401 -0.319784 0.469003 -0.740272 0.481698 0 0 255 255 
-0.187769 0.00270699 -0.315812 0.088441 0.684469 -0.723658 0 0 255 255 
-0.187721 0.00739799 -0.312095 0.135077 0.68751 -0.713501 0 0 255 255 
-0.184444 0.00554399 -0.30856 0.205376 0.66302 -0.719879 0 0 255 255 
-0.177568 0.00888099 -0.304864 0.267302 0.651259 -0.710219 0 0 255 255 
-0.173745 0.010676 -0.302832 0.318759 0.59703 -0.736171 0 0 255 255 
-0.169861 0.015462 -0.298272 -0.986151 0.029098 -0.163278 0 0 255 255 
-0.163189 0.014967 -0.294372 0.380939 0.533118 -0.755427 0 0 255 255 
-0.159009 0.015148 -0.293799 0.390106 0.56481 -0.727191 0 0 255 255 
-0.155186 0.01939 -0.285001 0.041991 -0.994258 -0.098425 0 0 255 255 
-0.147761 0.01923 -0.28325 -0.511683 0.753055 0.41363 0 0 255 255 
-0.140647 0.022085 -0.277072 0.401961 0.666565 -0.627789 0 0 255 255 
-0.135257 0.025707 -0.269046 0.259319 0.768949 -0.584356 0 0 255 255 
-0.130696 0.024411 -0.263096 0.166122 0.902292 -0.397835 0 0 255 255 
-0.121228 0.026675 -0.258311 0.017182 0.957317 -0.288529 0 0 255 255 
-0.109924 0.030986 -0.250252 0.045507 -0.992253 0.115601 0 0 255 255 
-0.0674348 0.018802 -0.205009 0.340946 0.897048 -0.281176 0 0 255 255 
0.0609418 -0.00609501 -0.0835265 0.028232 0.166135 -0.985699 0 0 255 255 
0.0598215 -0.006281 -0.0850295 0.018781 0.240506 -0.970466 0 0 255 255 
0.0647478 0.002086 -0.0842495 0.05092 0.447613 -0.892776 0 0 255 255 
0.0685567 0.00399001 -0.0813605 0.043193 0.637308 -0.769398 0 0 255 255 
0.0729517 0.00432299 -0.0769725 0.102752 0.669578 -0.7356 0 0 255 255 
0.0766316 0.010113 -0.0735915 0.09521 0.709789 -0.697951 0 0 255 255 
0.0839216 0.014101 -0.0694455 0.080191 -0.643715 -0.761052 0 0 255 255 
0.0880002 0.016086 -0.0609435 0.026463 -0.721323 -0.692093 0 0 255 255 
0.0955503 0.016167 -0.0566685 0.108599 0.861765 -0.495547 0 0 255 255 
0.106312 0.02002 -0.0500375 0.020411 -0.849531 -0.527144 0 0 255 255 
0.114775 0.02209 -0.0439115 0.324028 -0.645753 -0.691382 0 0 255 255 
0.123664 0.027063 -0.0353395 -0.003948 0.509823 -0.86027 0 0 255 255 
0.130546 0.030643 -0.0286335 0.091574 0.875805 -0.473899 0 0 255 255 
0.141375 0.031555 -0.0202835 0.107379 0.869195 -0.482669 0 0 255 255 
0.149858 0.033778 -0.0126105 0.117442 0.871252 -0.476579 0 0 255 255 
0.157508 0.038262 -0.00586349 0.208813 -0.107548 0.972024 0 0 255 255 
0.169436 0.040248 0.0018315 0.091799 -0.986677 -0.134318 0 0 255 255 
0.18313 0.039168 0.0144275 -0.102682 0.334162 0.936906 0 0 255 255 
0.198379 0.043049 0.0356825 0.069031 -0.893282 0.444165 0 0 255 255 
0.221211 0.044351 0.0508375 -0.062839 -0.433602 0.898911 0 0 255 255 
0.238919 0.045503 0.0645284 -0.168046 0.667347 0.72554 0 0 255 255 
0.248176 0.048862 0.0753647 -0.265698 -0.338637 0.902624 0 0 255 255 
-0.209599 -0.03284 -0.320398 -0.704826 -0.446339 -0.551364 0 0 255 255 
-0.21146 -0.029715 -0.323254 -0.657084 -0.299596 -0.691724 0 0 255 255 
-0.212872 -0.028806 -0.324968 -0.651615 -0.163052 -0.740819 0 0 255 255 
-0.212388 -0.021132 -0.324262 -0.586428 -0.032056 -0.809367 0 0 255 255 
-0.208719 -0.022394 -0.326587 -0.578835 0.013254 -0.815337 0 0 255 255 
-0.208547 -0.015549 -0.324593 -0.476459 0.187626 -0.858943 0 0 255 255 
-0.20816 -0.01471 -0.324421 -0.441885 0.219717 -0.869748 0 0 255 255 
-0.209179 -0.011027 -0.324701 -0.357158 0.359009 -0.862294 0 0 255 255 
-0.204554 -0.00848199 -0.323383 -0.275592 0.456076 -0.846194 0 0 255 255 
-0.206138 -0.0055 -0.322593 -0.188908 0.540798 -0.819666 0 0 255 255 
-0.200713 -0.000990018 -0.321 0.585424 -0.695382 0.416801 0 0 255 255 
-0.197072 0.000132009 -0.320103 -0.043894 0.632894 -0.772994 0 0 255 255 
-0.198328 0.000738993 -0.317281 -0.013181 0.642371 -0.76628 0 0 255 255 
-0.195078 0.00152399 -0.317093 -0.576314 -0.804914 -0.141334 0 0 255 255 
-0.18826 0.00723998 -0.31257 0.10399 0.655222 -0.748245 0 0 255 255 
-0.185392 0.00854699 -0.310272 0.152928 0.646829 -0.747145 0 0 255 255 
-0.182043 0.00904699 -0.305128 -0.701213 0.707123 0.090981 0 0 255 255 
-0.17963 0.015398 -0.303813 0.238688 0.604669 -0.759871 0 0 255 255 
-0.173485 0.013723 -0.303147 0.243989 0.605034 -0.757894 0 0 255 255 
-0.169174 0.018583 -0.299093 0.304949 -0.948822 0.08212 0 0 255 255 
-0.166073 0.020393 -0.293779 0.275101 -0.959253 0.064449 0 0 255 255 
-0.163462 0.022143 -0.29107 0.273382 0.935517 -0.223766 0 0 255 255 
-0.155088 0.021381 -0.283589 0.156363 -0.987683 -0.005748 0 0 255 255 
-0.147514 0.025238 -0.281341 0.279436 0.7778 -0.562976 0 0 255 255 
-0.140847 0.027156 -0.268905 0.114224 -0.993317 0.016558 0 0 255 255 
-0.131128 0.02664 -0.262228 0.158156 0.910622 -0.381779 0 0 255 255 
-0.122951 0.029286 -0.256292 -0.36165 0.912102 0.193079 0 0 255 255 
-0.0720227 0.02164 -0.211169 -0.180142 0.705989 0.684929 0 0 255 255 
0.05375 -0.008604 -0.0858745 0.209576 0.075189 -0.974897 0 0 255 255 
0.0580548 -0.002005 -0.0846255 0.015511 0.373078 -0.92767 0 0 255 255 
0.0562721 0.00305699 -0.0846915 -0.195043 -0.728641 -0.656537 0 0 255 255 
0.060112 0.00459398 -0.0789245 0.046218 0.595109 -0.802315 0 0 255 255 
0.0689624 0.00729398 -0.0774415 0.065783 0.70711 -0.704037 0 0 255 255 
0.0696571 0.012188 -0.0723035 0.132453 -0.647356 -0.75059 0 0 255 255 
0.0766506 0.015866 -0.0669215 0.098051 0.805177 -0.584873 0 0 255 255 
0.0832548 0.0143 -0.0617215 -0.354942 0.041477 -0.933968 0 0 255 255 
0.0932539 0.018251 -0.0532935 -0.249742 -0.902246 -0.351541 0 0 255 255 
0.102328 0.023299 -0.0467645 0.228503 0.729796 0.644347 0 0 255 255 
0.110228 0.023655 -0.0412015 0.133157 0.884545 -0.447046 0 0 255 255 
0.116791 0.026434 -0.0335635 0.08655 0.88776 -0.452097 0 0 255 255 
0.12659 0.031844 -0.0283785 -0.238671 0.894276 -0.378558 0 0 255 255 
0.135715 0.030928 -0.0206665 0.100555 0.874158 -0.475117 0 0 255 255 
0.142412 0.035222 -0.0107295 -0.038943 -0.990719 -0.130227 0 0 255 255 
0.150277 0.035594 -0.00310051 -0.648609 -0.232566 -0.72472 0 0 255 255 
0.160613 0.042689 0.00527149 0.069255 -0.995023 -0.071641 0 0 255 255 
0.176129 0.042756 0.0168515 -0.18885 -0.956632 0.221789 0 0 255 255 
0.192688 0.042472 0.0316135 -0.086421 -0.988506 0.124042 0 0 255 255 
0.214481 0.045643 0.0542981 -0.115565 0.602925 0.789384 0 0 255 255 
0.234336 0.047905 0.0706238 0.247276 0.967868 -0.045671 0 0 255 255 
0.245974 0.050256 0.0829602 0.815687 -0.558202 0.151869 0 0 255 255 
-0.214282 -0.033888 -0.319312 -0.67568 -0.556674 -0.483292 0 0 255 255 
-0.212596 -0.029329 -0.321027 -0.688778 -0.316643 -0.652167 0 0 255 255 
-0.211891 -0.027862 -0.320946 -0.694447 -0.178811 -0.696972 0 0 255 255 
-0.213184 -0.02164 -0.324636 -0.69475 -0.081958 -0.714567 0 0 255 255 
-0.214923 -0.022137 -0.325318 -0.63271 0.027761 -0.773891 0 0 255 255 
-0.210674 -0.018183 -0.323626 -0.599207 0.12743 -0.790387 0 0 255 255 
-0.210936 -0.015989 -0.324279 -0.496125 0.271814 -0.824607 0 0 255 255 
-0.212675 -0.00937401 -0.322686 -0.403237 0.381737 -0.831671 0 0 255 255 
-0.210657 -0.005666 -0.325008 -0.377438 0.39337 -0.838332 0 0 255 255 
-0.208511 -0.00721802 -0.319297 -0.228086 0.526807 -0.818811 0 0 255 255 
-0.20488 -0.00355001 -0.318 -0.218639 0.597533 -0.771461 0 0 255 255 
-0.201404 0.000127986 -0.32109 -0.541516 -0.78949 -0.288905 0 0 255 255 
-0.200287 0.00122 -0.316096 -0.084872 0.649273 -0.755805 0 0 255 255 
-0.198992 0.00441499 -0.314321 -0.00637 0.655264 -0.755373 0 0 255 255 
-0.19587 0.00862698 -0.312557 0.031321 0.642753 -0.765433 0 0 255 255 
-0.193411 0.010937 -0.310587 0.095928 0.655357 -0.749203 0 0 255 255 
-0.1877 0.00954901 -0.306953 0.081141 0.659399 -0.747402 0 0 255 255 
-0.185294 0.012131 -0.303151 0.228837 0.648907 -0.72564 0 0 255 255 
-0.178084 0.015883 -0.301432 0.168883 0.670247 -0.722667 0 0 255 255 
-0.174468 0.018711 -0.296088 0.17663 -0.982848 -0.053018 0 0 255 255 
-0.172725 0.019254 -0.292051 0.147751 -0.987255 -0.05914 0 0 255 255 
-0.166845 0.020667 -0.29256 0.232188 0.775147 -0.587567 0 0 255 255 
-0.162189 0.025331 -0.287663 0.290884 0.720608 -0.629373 0 0 255 255 
-0.155277 0.025617 -0.280944 -0.372762 0.893829 0.249236 0 0 255 255 
-0.146501 0.027796 -0.271874 -0.786363 0.557683 -0.265751 0 0 255 255 
-0.137017 0.029967 -0.262854 0.085455 -0.99049 -0.107829 0 0 255 255 
-0.126684 0.02761 -0.25231 0.071575 -0.996767 -0.036511 0 0 255 255 
-0.0898924 0.020714 -0.221596 0.00325 0.999218 -0.039408 0 0 255 255 
-0.0756737 0.025234 -0.207242 -0.619507 -0.679842 0.392461 0 0 255 255 
-0.0626346 0.024555 -0.190931 -0.595736 0.376805 0.709307 0 0 255 255 
0.0487813 -0.00168701 -0.0821155 0.001464 0.411617 -0.911356 0 0 255 255 
0.0541063 0.003444 -0.0834665 0.006854 0.530697 -0.847534 0 0 255 255 
0.0582567 0.00747599 -0.0777625 0.04865 0.637178 -0.769179 0 0 255 255 
0.0617033 0.009885 -0.0772655 -0.052846 0.580534 -0.81252 0 0 255 255 
0.0648539 0.010175 -0.0694105 0.074456 0.78905 -0.6098 0 0 255 255 
0.0719061 0.017117 -0.0646415 0.099088 0.815635 -0.570018 0 0 255 255 
0.0819461 0.019075 -0.0584395 0.105657 0.845323 -0.523704 0 0 255 255 
0.086535 0.021533 -0.0526585 0.121163 0.868886 -0.479955 0 0 255 255 
0.0952364 0.023974 -0.0481165 0.118357 0.889071 -0.442205 0 0 255 255 
0.104625 0.024379 -0.0402715 0.110749 0.892371 -0.437502 0 0 255 255 
0.111192 0.029786 -0.0340095 -0.136387 -0.728214 -0.671642 0 0 255 255 
0.119699 0.029593 -0.0233905 0.264449 -0.938383 0.222494 0 0 255 255 
0.12908 0.030818 -0.0168855 -0.158304 -0.955699 -0.248152 0 0 255 255 
0.138805 0.035957 -0.00978148 -0.180998 -0.983386 0.01388 0 0 255 255 
0.143341 0.040827 -0.0024305 -0.07934 0.884963 0.458853 0 0 255 255 
0.154563 0.043312 0.00121748 0.185709 0.862042 -0.471589 0 0 255 255 
0.164173 0.04299 0.0139975 -0.08385 -0.935636 0.342863 0 0 255 255 
0.183143 0.047814 0.0308605 -0.10175 0.726258 0.679851 0 0 255 255 
0.210027 0.04581 0.0543803 -0.445866 -0.737 0.507971 0 0 255 255 
0.229655 0.049222 0.071194 0.75709 0.307884 -0.576214 0 0 255 255 
0.24815 0.050344 0.0853628 -0.706861 -0.690764 0.152292 0 0 255 255 
-0.214534 -0.03087 -0.31677 -0.692548 -0.52546 -0.494236 0 0 255 255 
-0.213195 -0.030583 -0.317437 -0.688336 -0.415417 -0.594661 0 0 255 255 
-0.215844 -0.027499 -0.322501 -0.757357 -0.211582 -0.617773 0 0 255 255 
-0.216659 -0.023661 -0.322701 -0.720176 -0.108702 -0.685222 0 0 255 255 
-0.215905 -0.018302 -0.321526 0.569039 -0.708065 0.418138 0 0 255 255 
-0.21526 -0.015057 -0.324124 -0.655336 0.091353 -0.749793 0 0 255 255 
-0.213361 -0.013332 -0.321195 -0.636315 0.230854 -0.736077 0 0 255 255 
-0.213574 -0.007953 -0.321452 -0.611337 0.324821 -0.721636 0 0 255 255 
-0.211727 -0.00556801 -0.318729 -0.350236 0.914577 -0.202197 0 0 255 255 
-0.21123 -0.00574599 -0.321194 -0.405951 0.533367 -0.742108 0 0 255 255 
-0.207071 -0.00228702 -0.317313 -0.20072 0.974787 -0.097475 0 0 255 255 
-0.207844 0.001747 -0.318853 -0.270585 0.649764 -0.710345 0 0 255 255 
-0.20533 0.002921 -0.315995 -0.311731 0.664628 -0.679038 0 0 255 255 
-0.202256 0.00519998 -0.314929 -0.895821 -0.092082 -0.434771 0 0 255 255 
-0.196001 0.00878699 -0.311 -0.05164 0.702023 -0.710279 0 0 255 255 
-0.1927 0.011408 -0.307784 0.018252 0.69534 -0.718449 0 0 255 255 
-0.192197 0.014253 -0.305088 0.095161 0.645163 -0.758096 0 0 255 255 
-0.190574 0.014369 -0.302233 0.264977 0.652465 -0.709983 0 0 255 255 
-0.184521 0.016847 -0.303237 0.210854 -0.977123 -0.027758 0 0 255 255 
-0.179554 0.01742 -0.296703 0.200349 -0.979627 -0.013852 0 0 255 255 
-0.178195 0.020159 -0.295869 -0.919282 0.393598 0.001188 0 0 255 255 
-0.172997 0.023132 -0.288581 0.12973 0.79356 -0.594502 0 0 255 255 
-0.163866 0.02601 -0.285636 0.203858 -0.977029 -0.062096 0 0 255 255 
-0.158769 0.025987 -0.277465 0.001946 0.957199 -0.289426 0 0 255 255 
-0.148619 0.03056 -0.271244 0.145161 -0.986678 0.073454 0 0 255 255 
-0.139882 0.029415 -0.261707 -0.377107 0.868555 0.321562 0 0 255 255 
-0.127001 0.031051 -0.248735 0.02309 -0.985913 0.16566 0 0 255 255 
-0.0885503 0.021041 -0.216659 -0.17403 0.235191 0.956242 0 0 255 255 
-0.07832 0.024372 -0.203417 0.505506 0.673645 0.539135 0 0 255 255 
-0.0660639 0.025623 -0.192255 0.648295 0.306245 0.697085 0 0 255 255 
0.0475105 4.69834e-005 -0.0856155 -0.073292 0.426484 -0.901521 0 0 255 255 
0.0487494 0.00556 -0.0789415 -0.161859 0.240751 -0.956996 0 0 255 255 
0.0529855 0.007906 -0.0797075 -0.124273 -0.498935 -0.857683 0 0 255 255 
0.056791 0.00972699 -0.0754625 0.333827 -0.063457 -0.940496 0 0 255 255 
0.0612288 0.014594 -0.0723255 0.072238 0.794922 -0.602396 0 0 255 255 
0.0669281 0.013671 -0.0645515 0.072003 -0.838689 -0.539829 0 0 255 255 
0.0746278 0.017915 -0.0609225 0.107616 0.848817 -0.517619 0 0 255 255 
0.0828556 0.022999 -0.0547445 0.123048 0.870905 -0.475798 0 0 255 255 
0.0889984 0.023402 -0.0441185 0.129211 0.883071 -0.451099 0 0 255 255 
0.0968455 0.025767 -0.0387505 0.494623 -0.320619 -0.807807 0 0 255 255 
0.106384 0.029566 -0.0332985 0.104323 0.645515 -0.756589 0 0 255 255 
0.114688 0.030956 -0.0258555 -0.240714 0.88828 -0.391172 0 0 255 255 
0.121828 0.03617 -0.0182575 0.13649 0.842107 -0.521754 0 0 255 255 
0.133833 0.035118 -0.0100645 0.791723 0.343348 0.50526 0 0 255 255 
0.1371 0.03887 -0.0046615 0.21843 0.795722 -0.564902 0 0 255 255 
0.147908 0.040678 0.00396949 0.185353 0.841469 -0.507518 0 0 255 255 
0.158036 0.043526 0.0117535 -0.128446 0.605305 0.785562 0 0 255 255 
0.174245 0.044824 0.0268225 0.244628 0.911504 -0.330632 0 0 255 255 
0.208886 0.047721 0.0608261 -0.176172 0.309239 0.934524 0 0 255 255 
0.229492 0.047996 0.0764297 0.769274 0.1263 -0.626312 0 0 255 255 
0.250509 0.047556 0.0985409 0.797156 -0.088839 -0.597201 0 0 255 255 
-0.216454 -0.033394 -0.317742 0.047073 0.712989 -0.699593 0 0 255 255 
-0.21591 -0.028094 -0.316485 -0.541898 0.840436 0.003754 0 0 255 255 
-0.217694 -0.024846 -0.316085 0.540997 -0.771645 0.334494 0 0 255 255 
-0.219188 -0.020178 -0.319598 0.46572 -0.829089 0.309381 0 0 255 255 
-0.215567 -0.017895 -0.320994 -0.558748 0.829331 0.003484 0 0 255 255 
-0.217915 -0.017278 -0.319422 -0.482714 0.463837 -0.742861 0 0 255 255 
-0.214498 -0.014912 -0.318655 0.45346 -0.885751 -0.099091 0 0 255 255 
-0.213303 -0.011307 -0.319463 0.568601 0.580175 -0.583172 0 0 255 255 
-0.214049 -0.00436501 -0.320156 0.062129 0.829734 -0.554691 0 0 255 255 
-0.213298 -0.00480099 -0.315908 -0.555564 0.577378 -0.598317 0 0 255 255 
-0.210358 0.000412002 -0.315519 -0.497853 0.649032 -0.575239 0 0 255 255 
-0.206166 0.00277101 -0.314422 -0.463408 0.618537 -0.634559 0 0 255 255 
-0.2053 0.003381 -0.316085 -0.369907 0.675065 -0.638323 0 0 255 255 
-0.205277 0.00474699 -0.309974 -0.377725 0.699297 -0.606883 0 0 255 255 
-0.199869 0.008552 -0.308423 -0.274197 0.721064 -0.636304 0 0 255 255 
-0.199594 0.012947 -0.309637 -0.157901 0.800695 -0.577889 0 0 255 255 
-0.192563 0.015533 -0.306305 -0.975032 0.183171 -0.125541 0 0 255 255 
-0.192488 0.014433 -0.303189 -0.282595 0.835581 -0.471109 0 0 255 255 
-0.190074 0.019012 -0.300002 -0.189124 0.887281 -0.420671 0 0 255 255 
-0.182362 0.018639 -0.295345 -0.083872 0.935713 -0.342646 0 0 255 255 
-0.179972 0.022492 -0.292991 -0.167652 0.963745 -0.207577 0 0 255 255 
-0.175148 0.025815 -0.286633 0.190326 -0.980029 -0.057615 0 0 255 255 
-0.169011 0.028032 -0.281814 0.171647 -0.984386 -0.039014 0 0 255 255 
-0.160953 0.029494 -0.275955 -0.774358 0.575914 -0.262094 0 0 255 255 
-0.146518 0.027258 -0.264037 0.144251 -0.985608 -0.088139 0 0 255 255 
-0.138619 0.030986 -0.255237 0.082878 -0.993636 -0.076283 0 0 255 255 
-0.123977 0.028524 -0.24226 0.232043 -0.510318 -0.828089 0 0 255 255 
-0.0909519 0.022505 -0.209922 -0.114609 -0.960887 -0.252112 0 0 255 255 
-0.0775236 0.022908 -0.201807 -0.178897 0.983237 -0.035229 0 0 255 255 
-0.0710529 0.027427 -0.191435 -0.813376 -0.297349 0.500003 0 0 255 255 
-0.057062 0.02626 -0.176705 -0.234586 0.960048 -0.152569 0 0 255 255 
0.0416887 0.00500698 -0.0794145 -0.009208 0.561573 -0.827376 0 0 255 255 
0.0469908 0.00862001 -0.0785665 0.016976 0.649959 -0.75978 0 0 255 255 
0.0503432 0.012424 -0.0722295 0.044878 0.743926 -0.666754 0 0 255 255 
0.0557165 0.013642 -0.0711345 0.059999 0.789924 -0.610262 0 0 255 255 
0.0610584 0.017805 -0.0654755 -0.510759 0.535312 -0.67273 0 0 255 255 
0.0700119 0.018617 -0.0581715 0.110252 -0.993764 0.016638 0 0 255 255 
0.0748485 0.022252 -0.0518745 0.12776 0.863809 -0.487351 0 0 255 255 
0.0834711 0.026277 -0.0454605 -0.292222 -0.410071 -0.863972 0 0 255 255 
0.0947773 0.028382 -0.0377255 0.094742 0.216732 -0.971623 0 0 255 255 
0.0997784 0.032151 -0.0307885 0.124601 0.8583 -0.497791 0 0 255 255 
0.109853 0.030693 -0.0259195 0.143962 0.819383 -0.554875 0 0 255 255 
0.116079 0.036901 -0.0167775 -0.255359 0.893407 -0.369615 0 0 255 255 
0.126586 0.037956 -0.0114965 0.087758 0.212764 -0.973155 0 0 255 255 
0.132791 0.041005 -0.00323749 -0.144819 0.838971 0.524552 0 0 255 255 
0.143863 0.045908 0.00460953 -0.090354 0.868662 0.487096 0 0 255 255 
0.150758 0.044866 0.0108625 -0.073996 -0.325113 0.942776 0 0 255 255 
0.164774 0.047664 0.0259595 0.144022 -0.98696 -0.071885 0 0 255 255 
0.210368 0.04715 0.0680657 0.209308 0.965022 -0.157868 0 0 255 255 
0.232304 0.045682 0.0856433 0.672219 0.482314 -0.56169 0 0 255 255 
0.290146 0.039846 0.141416 0.610821 -0.777799 0.148076 0 0 255 255 
-0.218809 -0.033421 -0.311513 -0.640418 -0.703064 -0.309137 0 0 255 255 
-0.219169 -0.028536 -0.315201 -0.848905 -0.294593 -0.438833 0 0 255 255 
-0.220988 -0.022504 -0.31484 0.009818 0.960446 -0.278294 0 0 255 255 
-0.219094 -0.019509 -0.317867 -0.00436 0.950694 -0.3101 0 0 255 255 
-0.21829 -0.020629 -0.315905 -0.883328 0.047685 -0.466323 0 0 255 255 
-0.218111 -0.017149 -0.318125 0.166319 -0.972159 0.165061 0 0 255 255 
-0.2197 -0.014137 -0.318613 0.013743 -0.967679 0.25181 0 0 255 255 
-0.216036 -0.00708 -0.315937 -0.279933 0.703049 -0.653728 0 0 255 255 
-0.217716 -0.00501199 -0.315183 -0.038757 0.644274 -0.763812 0 0 255 255 
-0.215191 -0.00119101 -0.316523 -0.348737 0.699623 -0.623627 0 0 255 255 
-0.212247 0.000390992 -0.315501 -0.660771 0.613618 -0.432267 0 0 255 255 
-0.2094 0.00202401 -0.310434 -0.601968 0.697433 -0.388872 0 0 255 255 
-0.209534 0.00512101 -0.309356 0.180488 -0.983455 0.015532 0 0 255 255 
-0.204024 0.00712799 -0.307947 -0.461618 0.731186 -0.502271 0 0 255 255 
-0.202022 0.00712301 -0.308272 -0.106648 0.98293 -0.149914 0 0 255 255 
-0.202037 0.009905 -0.304199 -0.430468 0.804674 -0.408897 0 0 255 255 
-0.199001 0.016704 -0.303788 -0.326128 0.817887 -0.474026 0 0 255 255 
-0.195172 0.017441 -0.30011 -0.239518 0.892639 -0.381872 0 0 255 255 
-0.192002 0.021163 -0.296549 -0.29702 0.944886 -0.137727 0 0 255 255 
-0.187052 0.019751 -0.292605 -0.299147 0.954004 -0.019681 0 0 255 255 
-0.181404 0.020626 -0.28964 -0.333272 0.938609 0.089122 0 0 255 255 
-0.174638 0.025042 -0.281316 -0.380944 0.863889 0.329511 0 0 255 255 
-0.163835 0.025515 -0.276607 0.121529 -0.992228 0.026716 0 0 255 255 
-0.153262 0.028069 -0.268579 -0.32495 0.871101 0.368227 0 0 255 255 
-0.146229 0.026362 -0.256363 -0.925837 0.360609 -0.113081 0 0 255 255 
-0.139705 0.028769 -0.24847 -0.21704 0.974012 0.064756 0 0 255 255 
-0.0974983 0.022793 -0.212085 -0.394745 -0.903024 -0.169482 0 0 255 255 
-0.0896671 0.023646 -0.201847 0.815784 -0.544551 -0.194835 0 0 255 255 
-0.0789484 0.025674 -0.196895 0.225565 -0.924713 0.306636 0 0 255 255 
-0.0747149 0.02736 -0.189916 0.077226 -0.996614 0.028232 0 0 255 255 
-0.0642932 0.026287 -0.177641 0.125555 0.96736 -0.220115 0 0 255 255 
0.0366862 0.00647299 -0.0812775 -0.043761 -0.651611 -0.75729 0 0 255 255 
0.0422539 0.007006 -0.0778435 0.011072 0.668648 -0.743497 0 0 255 255 
0.0449739 0.010929 -0.0716265 0.031345 0.738387 -0.673649 0 0 255 255 
0.0504633 0.015812 -0.0674945 0.059363 0.77199 -0.632857 0 0 255 255 
0.0572191 0.016144 -0.0616995 0.080798 0.825435 -0.558685 0 0 255 255 
0.0662408 0.023226 -0.0564345 0.951816 0.306142 -0.017989 0 0 255 255 
0.0731152 0.021701 -0.0524305 -0.931746 -0.21376 -0.293523 0 0 255 255 
0.0813844 0.025626 -0.0458885 0.433078 -0.878001 0.203855 0 0 255 255 
0.0906793 0.026442 -0.0363145 0.161319 0.864145 -0.476687 0 0 255 255 
0.095037 0.03004 -0.0299415 0.150886 0.829596 -0.537591 0 0 255 255 
0.104232 0.035999 -0.0219835 0.158205 0.804612 -0.572339 0 0 255 255 
0.110793 0.037882 -0.0175555 0.171665 0.793564 -0.58377 0 0 255 255 
0.117128 0.042527 -0.0113775 0.023193 0.402414 0.915164 0 0 255 255 
0.128455 0.042448 -0.00297248 -0.133798 0.847534 0.5136 0 0 255 255 
0.133121 0.048288 0.0034205 -0.035426 0.790478 0.611465 0 0 255 255 
0.145563 0.047946 0.0100145 0.23824 0.801882 -0.54793 0 0 255 255 
0.155631 0.050373 0.0217035 0.034965 -0.936762 -0.348216 0 0 255 255 
0.219006 0.043734 0.0775131 -0.257031 0.455607 0.852266 0 0 255 255 
0.23917 0.04781 0.101044 -0.860872 0.497587 -0.106331 0 0 255 255 
-0.217474 -0.033834 -0.311614 -0.672071 -0.607105 -0.423962 0 0 255 255 
-0.221327 -0.028955 -0.310057 -0.888544 -0.281427 -0.362338 0 0 255 255 
-0.221202 -0.025734 -0.314821 -0.9087 -0.146594 -0.390864 0 0 255 255 
-0.218925 -0.022728 -0.314193 -0.932445 -0.02292 -0.360585 0 0 255 255 
-0.222575 -0.017204 -0.312596 -0.936372 0.073564 -0.343215 0 0 255 255 
-0.219571 -0.016213 -0.314139 -0.939778 0.17219 -0.295242 0 0 255 255 
-0.219377 -0.01183 -0.311274 0.085861 -0.983739 0.15775 0 0 255 255 
-0.218666 -0.010008 -0.315661 0.55371 -0.832636 -0.011016 0 0 255 255 
-0.215313 -0.004416 -0.314604 -0.631811 0.770119 0.0879279 0 0 255 255 
-0.212866 -0.00210001 -0.312394 0.509146 -0.804059 0.307016 0 0 255 255 
-0.212866 0.001128 -0.31049 -0.796971 0.585169 -0.149716 0 0 255 255 
-0.209133 1.39922e-005 -0.309889 -0.750121 0.644788 -0.146853 0 0 255 255 
-0.20851 0.00584601 -0.308836 0.037186 -0.98233 0.183425 0 0 255 255 
-0.205032 0.007304 -0.305533 -0.730616 0.678634 -0.075206 0 0 255 255 
-0.205521 0.00918199 -0.302581 0.132154 -0.990323 0.042384 0 0 255 255 
-0.201268 0.010153 -0.301573 -0.598044 0.796033 -0.093138 0 0 255 255 
-0.200231 0.014012 -0.298292 -0.55333 0.832714 -0.020329 0 0 255 255 
-0.195218 0.016756 -0.29625 -0.539891 0.835054 0.105844 0 0 255 255 
-0.188815 0.021161 -0.295312 -0.521364 0.816926 0.246599 0 0 255 255 
-0.1865 0.021894 -0.290345 0.147232 -0.987671 -0.05319 0 0 255 255 
-0.179209 0.020339 -0.283958 -0.871046 0.456644 -0.180984 0 0 255 255 
-0.16778 0.020491 -0.273569 -0.462875 0.881208 -0.096016 0 0 255 255 
-0.159831 0.02485 -0.265554 0.540187 -0.84095 -0.031623 0 0 255 255 
-0.150867 0.02464 -0.257126 -0.481455 0.845619 0.230498 0 0 255 255 
-0.145655 0.027086 -0.251738 0.046986 -0.996827 0.064259 0 0 255 255 
-0.139362 0.026897 -0.244875 0.011692 -0.962863 0.269738 0 0 255 255 
-0.0934103 0.018948 -0.204719 -0.68626 -0.642707 0.340551 0 0 255 255 
-0.0856748 0.021715 -0.19686 0.281824 0.928015 -0.243647 0 0 255 255 
-0.0790695 0.022433 -0.190717 -0.251594 0.960686 -0.117403 0 0 255 255 
-0.0727189 0.027021 -0.183663 -0.857091 0.020925 0.51474 0 0 255 255 
-0.0640395 0.028186 -0.179374 0.207951 -0.924803 0.318583 0 0 255 255 
0.0344217 0.00691201 -0.0786925 -0.118514 0.595376 -0.794658 0 0 255 255 
0.0369418 0.00787701 -0.0741835 -0.271595 0.94909 -0.159577 0 0 255 255 
0.0413643 0.012941 -0.0717015 -0.382296 -0.53666 -0.752227 0 0 255 255 
0.044954 0.013952 -0.0674405 0.053627 0.79153 -0.608773 0 0 255 255 
0.0511954 0.018798 -0.0630515 0.075867 0.821246 -0.565507 0 0 255 255 
0.0595514 0.021035 -0.0599595 0.101894 0.837853 -0.536302 0 0 255 255 
0.0643296 0.023577 -0.0525155 -0.237491 0.70732 -0.665805 0 0 255 255 
0.0751336 0.029322 -0.0438145 -0.222236 0.361438 -0.905524 0 0 255 255 
0.0810789 0.028192 -0.0346705 0.163485 0.857142 -0.488446 0 0 255 255 
0.0905692 0.030636 -0.0321585 0.163288 0.82813 -0.536225 0 0 255 255 
0.0972382 0.034612 -0.0236285 -0.236993 0.880577 -0.410388 0 0 255 255 
0.104587 0.040275 -0.0165305 -0.25661 0.885279 -0.387857 0 0 255 255 
0.114828 0.040847 -0.0112025 -0.323839 0.377562 0.867511 0 0 255 255 
0.119295 0.042422 -0.0048095 0.385814 -0.533523 -0.752662 0 0 255 255 
0.125233 0.045812 0.00286949 -0.02136 -0.98589 0.166025 0 0 255 255 
0.135562 0.049585 0.00729352 -0.130728 0.789175 0.600095 0 0 255 255 
0.148397 0.05423 0.0209475 0.405549 0.914029 -0.008966 0 0 255 255 
0.224708 0.043817 0.0937551 0.813531 -0.581169 0.020243 0 0 255 255 
0.282386 0.039723 0.149065 -0.525756 0.571405 0.630141 0 0 255 255 
-0.218766 -0.029964 -0.304304 0.47219 -0.780791 0.409149 0 0 255 255 
-0.220261 -0.025879 -0.307023 -0.931865 -0.21233 -0.294183 0 0 255 255 
-0.222241 -0.025612 -0.310919 -0.1292 0.985435 -0.110568 0 0 255 255 
-0.220631 -0.021458 -0.309841 -0.946501 0.007516 -0.322613 0 0 255 255 
-0.221203 -0.016471 -0.309447 -0.966726 0.140158 -0.214001 0 0 255 255 
-0.220727 -0.013254 -0.311224 -0.956359 0.238989 -0.168112 0 0 255 255 
-0.221321 -0.014082 -0.312218 -0.604048 0.789303 0.110121 0 0 255 255 
-0.219423 -0.01088 -0.31134 -0.706074 0.660803 -0.254555 0 0 255 255 
-0.214893 -0.007686 -0.310337 0.363635 -0.821773 0.438701 0 0 255 255 
-0.216515 -0.005567 -0.306291 -0.84972 0.521924 0.074645 0 0 255 255 
-0.213777 -0.000462011 -0.305079 -0.83455 0.529388 0.152561 0 0 255 255 
-0.21202 0.002912 -0.302639 0.180538 -0.983055 -0.03175 0 0 255 255 
-0.206986 0.00392099 -0.304013 -0.800014 0.565006 0.201855 0 0 255 255 
-0.205378 0.007782 -0.302758 0.065412 -0.994854 0.077372 0 0 255 255 
-0.206398 0.00807099 -0.302047 -0.748682 0.576545 0.327217 0 0 255 255 
-0.199821 0.010898 -0.297452 -0.692127 0.654133 0.305076 0 0 255 255 
-0.195098 0.012736 -0.292443 -0.53644 0.832427 -0.138916 0 0 255 255 
-0.192016 0.014663 -0.292077 0.404342 -0.908289 0.107329 0 0 255 255 
-0.185306 0.016655 -0.286702 0.06797 -0.98907 -0.130849 0 0 255 255 
-0.179742 0.019869 -0.275519 0.773444 0.616708 -0.146479 0 0 255 255 
-0.168656 0.017071 -0.267006 0.290598 -0.934378 0.206131 0 0 255 255 
-0.162253 0.019419 -0.262614 -0.503108 0.763413 0.405072 0 0 255 255 
-0.152441 0.020572 -0.256094 0.566903 -0.745889 -0.349673 0 0 255 255 
-0.151229 0.024268 -0.249476 0.486294 -0.5828 -0.651047 0 0 255 255 
-0.14596 0.024396 -0.244741 -0.287396 0.953614 -0.089582 0 0 255 255 
-0.138382 0.029869 -0.237936 -0.125699 0.991716 0.026444 0 0 255 255 
-0.0928506 0.020079 -0.193743 0.333088 0.900577 -0.27931 0 0 255 255 
-0.0847214 0.022475 -0.192223 -0.432019 0.901861 0.002404 0 0 255 255 
-0.0802048 0.025391 -0.185995 -0.398147 0.913026 -0.088669 0 0 255 255 
-0.0773861 0.027794 -0.180283 0.83787 0.510096 -0.19436 0 0 255 255 
-0.0701115 0.030804 -0.176694 0.898436 -0.435233 -0.05818 0 0 255 255 
0.0275518 0.009652 -0.0781555 0.018035 0.99982 0.005943 0 0 255 255 
0.0351737 0.00885899 -0.0748895 -0.037972 0.686671 -0.725976 0 0 255 255 
0.0354343 0.012276 -0.0731375 0.013388 0.763805 -0.645308 0 0 255 255 
0.0443285 0.015693 -0.0680085 0.047807 0.784008 -0.618907 0 0 255 255 
0.0482705 0.021062 -0.0612755 0.386605 -0.915553 -0.1109 0 0 255 255 
0.0550447 0.021782 -0.0587755 -0.308802 0.798339 -0.517006 0 0 255 255 
0.0608864 0.025225 -0.0485315 0.128415 0.85242 -0.506843 0 0 255 255 
0.0684162 0.030629 -0.0441505 0.112362 0.894284 -0.433164 0 0 255 255 
0.0748081 0.032673 -0.0370265 0.175692 0.848769 -0.498722 0 0 255 255 
0.0866411 0.034772 -0.0299935 -0.059116 -0.979527 -0.192438 0 0 255 255 
0.0934488 0.035839 -0.0242685 0.168865 0.785585 -0.595266 0 0 255 255 
0.0999284 0.041978 -0.0164135 0.324825 0.847787 0.419221 0 0 255 255 
0.104252 0.04437 -0.0100385 -0.009813 -0.356541 -0.934228 0 0 255 255 
0.111472 0.047048 -0.00510252 0.08813 0.784514 -0.613817 0 0 255 255 
0.121269 0.050946 0.00142652 0.235139 0.743897 -0.625562 0 0 255 255 
0.130511 0.052842 0.00975752 -0.082406 -0.976961 0.196869 0 0 255 255 
0.137998 0.053891 0.0170965 -0.088709 0.710138 0.698451 0 0 255 255 
0.270278 0.035575 0.146795 0.127511 0.991152 0.036848 0 0 255 255 
-0.223728 -0.032469 -0.303313 0.133809 -0.990189 0.040269 0 0 255 255 
-0.222565 -0.028569 -0.305478 -0.954394 -0.17498 -0.241896 0 0 255 255 
-0.22334 -0.02615 -0.307418 0.110081 0.640506 -0.760023 0 0 255 255 
-0.22369 -0.022946 -0.307092 0.932919 -0.126184 -0.337252 0 0 255 255 
-0.222335 -0.017785 -0.307052 0.917183 0.133595 -0.375403 0 0 255 255 
-0.21922 -0.016089 -0.30553 0.17725 0.928105 -0.327418 0 0 255 255 
-0.221536 -0.010714 -0.307732 0.173704 -0.984794 -0.00265 0 0 255 255 
-0.220428 -0.010534 -0.305896 0.301689 -0.95252 0.041099 0 0 255 255 
-0.214903 -0.006346 -0.301493 -0.84441 0.501329 0.188788 0 0 255 255 
-0.215268 -0.006328 -0.30296 0.312051 -0.948143 0.060413 0 0 255 255 
-0.212407 -0.001386 -0.300665 -0.7742 0.528242 0.348677 0 0 255 255 
-0.211042 0.00278299 -0.298211 0.160477 -0.984948 -0.064217 0 0 255 255 
-0.207258 0.00492398 -0.296867 0.107907 0.753327 -0.648733 0 0 255 255 
-0.204612 0.00783001 -0.295738 -0.742606 0.513238 0.430259 0 0 255 255 
-0.200233 0.00835599 -0.294133 0.171009 -0.983214 -0.063613 0 0 255 255 
-0.197297 0.008828 -0.290681 0.195778 -0.978756 -0.06089 0 0 255 255 
-0.193044 0.014673 -0.284523 -0.636466 0.58869 0.498353 0 0 255 255 
-0.184096 0.013558 -0.275855 -0.458074 0.84795 -0.266739 0 0 255 255 
-0.175979 0.012701 -0.2725 -0.553986 0.696719 0.455721 0 0 255 255 
-0.167448 0.01449 -0.263377 -0.754239 -0.60996 0.243047 0 0 255 255 
-0.162502 0.019431 -0.257603 -0.531185 0.841691 0.096951 0 0 255 255 
-0.157071 0.019421 -0.253893 -0.462274 0.854324 -0.237558 0 0 255 255 
-0.152081 0.024233 -0.251628 -0.420909 0.90187 -0.097298 0 0 255 255 
-0.150707 0.024654 -0.248643 -0.338469 0.922784 -0.184142 0 0 255 255 
-0.143844 0.024758 -0.245378 -0.242808 0.930182 -0.275327 0 0 255 255 
-0.0990432 0.015792 -0.194896 0.125129 0.991377 -0.038925 0 0 255 255 
-0.0926742 0.020313 -0.192034 -0.442493 0.797006 0.411074 0 0 255 255 
-0.0863127 0.019393 -0.185995 0.752033 -0.657172 -0.050708 0 0 255 255 
-0.0831815 0.023161 -0.182837 -0.771653 0.415673 0.481422 0 0 255 255 
-0.0778156 0.02908 -0.176553 -0.257618 0.955419 -0.144245 0 0 255 255 
-0.0709303 0.028708 -0.174089 0.735715 -0.676916 -0.022551 0 0 255 255 
-0.0582571 0.031693 -0.159256 -0.986187 0.152177 0.065403 0 0 255 255 
0.0298647 0.014564 -0.0713745 -0.04562 0.676525 -0.735005 0 0 255 255 
0.0306147 0.016135 -0.0707325 0.006003 0.759391 -0.650607 0 0 255 255 
0.040224 0.018684 -0.0677045 0.225631 -0.972082 -0.064399 0 0 255 255 
0.0457 0.023568 -0.0633955 0.055144 0.811377 -0.581916 0 0 255 255 
0.0495483 0.022441 -0.0582175 0.053247 -0.831074 -0.553607 0 0 255 255 
0.0553073 0.025171 -0.0485105 0.121975 0.840329 -0.528176 0 0 255 255 
0.0618334 0.02832 -0.0453105 0.150499 0.842719 -0.51689 0 0 255 255 
0.0695404 0.032687 -0.0383635 0.152282 0.820862 -0.55045 0 0 255 255 
0.081518 0.035258 -0.0316095 0.175805 0.821757 -0.542041 0 0 255 255 
0.0877445 0.038622 -0.0257825 0.179494 0.756153 -0.629297 0 0 255 255 
0.0940487 0.042809 -0.0191005 0.184015 0.733769 -0.654004 0 0 255 255 
0.0996039 0.04381 -0.0109455 0.155703 -0.916242 -0.369129 0 0 255 255 
0.104656 0.045918 -0.0056915 -0.120708 0.881225 -0.457026 0 0 255 255 
0.112145 0.04839 0.00116751 0.246922 0.729371 -0.638003 0 0 255 255 
0.122065 0.055385 0.00581652 0.256151 0.761597 -0.595279 0 0 255 255 
0.128969 0.05727 0.0126275 -0.144657 -0.390339 0.909236 0 0 255 255 
-0.221788 -0.033475 -0.298719 0.840769 -0.50256 -0.201347 0 0 255 255 
-0.22362 -0.026897 -0.302379 -0.982725 -0.011848 -0.184691 0 0 255 255 
-0.223987 -0.026656 -0.301465 0.37633 -0.926358 -0.015385 0 0 255 255 
-0.220795 -0.019556 -0.303082 -0.818145 0.525265 0.233956 0 0 255 255 
-0.219473 -0.020863 -0.300068 0.172917 0.690533 -0.702328 0 0 255 255 
-0.219328 -0.014432 -0.301196 0.19199 -0.978779 -0.071635 0 0 255 255 
-0.219565 -0.010657 -0.30301 -0.881466 0.450724 0.140943 0 0 255 255 
-0.21835 -0.01063 -0.301205 0.221252 -0.974255 0.043292 0 0 255 255 
-0.213519 -0.00922002 -0.29846 -0.776063 0.592973 0.214731 0 0 255 255 
-0.212813 -0.00254999 -0.293941 0.283262 0.691746 -0.664267 0 0 255 255 
-0.209636 -0.00107999 -0.291963 -0.728888 0.623988 0.281712 0 0 255 255 
-0.206039 -0.000855997 -0.288987 0.217828 -0.973026 -0.075975 0 0 255 255 
-0.204601 0.00171299 -0.288105 0.176617 -0.984259 0.006375 0 0 255 255 
-0.199309 0.00249301 -0.285717 0.20243 -0.977642 -0.056913 0 0 255 255 
-0.197695 0.00880401 -0.284213 0.184796 -0.981547 -0.049159 0 0 255 255 
-0.19262 0.010777 -0.278069 0.014249 -0.989155 -0.146186 0 0 255 255 
-0.184708 0.010411 -0.272087 0.145474 -0.988496 -0.041378 0 0 255 255 
-0.179055 0.011532 -0.267067 -0.725796 0.627626 -0.281613 0 0 255 255 
-0.17243 0.010927 -0.260053 -0.489972 0.842481 0.22395 0 0 255 255 
-0.165402 0.01395 -0.255102 -0.518793 0.854028 0.038599 0 0 255 255 
-0.162428 0.017553 -0.25508 -0.411974 0.889359 -0.198285 0 0 255 255 
-0.161981 0.020543 -0.250098 -0.420256 0.851146 -0.314541 0 0 255 255 
-0.154699 0.020312 -0.246478 -0.286369 0.901634 -0.324114 0 0 255 255 
-0.153918 0.025034 -0.244403 -0.214532 0.912928 -0.347186 0 0 255 255 
-0.144936 0.026953 -0.242137 -0.122733 0.959266 -0.254451 0 0 255 255 
-0.0970024 0.018943 -0.186309 -0.334814 -0.942114 0.017903 0 0 255 255 
-0.0902248 0.016983 -0.18677 0.612651 0.738846 -0.280652 0 0 255 255 
-0.0872371 0.022308 -0.180968 -0.527833 0.848846 -0.029195 0 0 255 255 
-0.0833997 0.025911 -0.179675 -0.502939 0.859679 -0.089472 0 0 255 255 
-0.0790914 0.028475 -0.174765 -0.434591 0.894066 -0.108524 0 0 255 255 
-0.0715353 0.029176 -0.167793 -0.294344 0.945626 -0.138393 0 0 255 255 
-0.0624837 0.030168 -0.157986 0.051721 0.986927 -0.152643 0 0 255 255 
0.0238779 0.01288 -0.0738815 -0.497525 -0.297344 -0.814896 0 0 255 255 
0.0266109 0.017523 -0.0683035 -0.013818 0.770597 -0.637173 0 0 255 255 
0.0342956 0.018678 -0.0633955 0.021475 0.788107 -0.615163 0 0 255 255 
0.0407404 0.022609 -0.0613175 0.042058 0.808552 -0.586919 0 0 255 255 
0.0461112 0.026201 -0.0529925 0.268059 -0.714723 -0.645999 0 0 255 255 
0.0495558 0.026095 -0.0505695 0.031841 -0.843983 -0.535425 0 0 255 255 
0.0565279 0.030301 -0.0437115 0.153348 0.837077 -0.525153 0 0 255 255 
0.0659304 0.0361 -0.0365435 0.164786 0.83635 -0.522843 0 0 255 255 
0.0724918 0.035304 -0.0308995 0.185083 0.813042 -0.552003 0 0 255 255 
0.0820876 0.037359 -0.0225925 0.182768 0.762457 -0.620689 0 0 255 255 
0.087592 0.043947 -0.0176325 -0.591602 0.535089 -0.603064 0 0 255 255 
0.0945914 0.04415 -0.0134745 0.213404 0.704008 -0.677371 0 0 255 255 
0.0984831 0.048115 -0.0092805 0.219669 0.706763 -0.672482 0 0 255 255 
0.108271 0.052729 -0.0015955 -0.091814 -0.990544 0.10195 0 0 255 255 
0.113891 0.056163 0.00715551 -0.080757 -0.74488 0.662293 0 0 255 255 
0.123001 0.059462 0.0118695 0.271264 0.816341 -0.509904 0 0 255 255 
-0.223764 -0.031469 -0.298676 0.469538 -0.858053 0.208034 0 0 255 255 
-0.224937 -0.028767 -0.295177 -0.979867 -0.061359 -0.189989 0 0 255 255 
-0.225271 -0.022671 -0.295963 -0.979107 0.134489 -0.15252 0 0 255 255 
-0.224411 -0.02397 -0.297284 -0.959255 0.27079 -0.080642 0 0 255 255 
-0.222581 -0.02036 -0.299674 0.219419 -0.975543 -0.013067 0 0 255 255 
-0.223147 -0.014806 -0.295098 0.229181 0.773117 -0.59141 0 0 255 255 
-0.216575 -0.01264 -0.294393 -0.097667 0.963345 -0.249856 0 0 255 255 
-0.21709 -0.010058 -0.293029 -0.7751 0.616377 0.138923 0 0 255 255 
-0.213043 -0.00606401 -0.294706 0.814572 0.505329 -0.284807 0 0 255 255 
-0.20915 -0.005944 -0.290464 0.261889 0.752517 -0.604262 0 0 255 255 
-0.206668 -0.003868 -0.286481 0.848347 -0.512167 -0.134135 0 0 255 255 
-0.206374 -0.00205199 -0.284431 -0.648755 0.734907 0.197558 0 0 255 255 
-0.202104 0.003502 -0.280854 -0.56931 0.768977 0.290793 0 0 255 255 
-0.197966 0.00508501 -0.279532 0.124502 -0.992218 -0.001418 0 0 255 255 
-0.194041 0.00499101 -0.274383 -0.542187 0.790628 0.2845 0 0 255 255 
-0.185829 0.00697999 -0.268371 0.150758 -0.986549 -0.063196 0 0 255 255 
-0.182432 0.00653701 -0.262827 0.947774 0.169133 -0.270405 0 0 255 255 
-0.176311 0.011318 -0.257066 -0.426261 -0.856703 0.29045 0 0 255 255 
-0.16997 0.014274 -0.256781 0.232183 -0.939387 0.252277 0 0 255 255 
-0.167196 0.017052 -0.251154 -0.188065 0.786946 -0.587663 0 0 255 255 
-0.16258 0.016 -0.250861 -0.447932 0.880356 -0.155981 0 0 255 255 
-0.1621 0.019393 -0.245252 -0.182783 0.788023 -0.587886 0 0 255 255 
-0.15856 0.02267 -0.243845 -0.046143 -0.998448 0.031182 0 0 255 255 
-0.154101 0.026736 -0.240012 0.159783 -0.708767 -0.687109 0 0 255 255 
-0.149028 0.024922 -0.238636 0.019851 0.979633 -0.199811 0 0 255 255 
-0.0941558 0.013804 -0.181302 -0.647381 -0.753219 0.116446 0 0 255 255 
-0.0912454 0.021334 -0.178474 0.597918 0.755928 -0.266585 0 0 255 255 
-0.0861168 0.021662 -0.178797 -0.665793 -0.73993 0.096036 0 0 255 255 
-0.0855502 0.02529 -0.174084 -0.518202 0.84941 -0.099845 0 0 255 255 
-0.0795165 0.027504 -0.168101 0.033445 0.98359 -0.17729 0 0 255 255 
-0.0724264 0.027462 -0.163985 -0.250553 0.95772 -0.141403 0 0 255 255 
-0.0641108 0.028811 -0.158193 -0.05793 0.987695 -0.145267 0 0 255 255 
0.0202951 0.013478 -0.0713105 -0.052031 0.707089 -0.705208 0 0 255 255 
0.0223409 0.017958 -0.0670495 -0.026003 0.756816 -0.65311 0 0 255 255 
0.0295502 0.020108 -0.0628385 0.013062 0.782562 -0.622435 0 0 255 255 
0.0321905 0.022418 -0.0607485 -0.208861 0.844688 0.492828 0 0 255 255 
0.0411973 0.027418 -0.0534405 0.06065 0.825603 -0.560982 0 0 255 255 
0.0478833 0.028926 -0.0502365 0.019295 -0.845258 -0.534011 0 0 255 255 
0.0513559 0.030376 -0.0411335 -0.187174 -0.959522 -0.210437 0 0 255 255 
0.0611097 0.033857 -0.0347545 0.165602 0.824789 -0.540647 0 0 255 255 
0.0682656 0.037121 -0.0292205 -0.11653 -0.980007 -0.161268 0 0 255 255 
0.076225 0.041518 -0.0254295 0.194274 0.742596 -0.640943 0 0 255 255 
0.0807471 0.042618 -0.0188865 -0.114295 -0.986811 -0.114633 0 0 255 255 
0.0840198 0.047822 -0.0159055 0.214506 0.693476 -0.687807 0 0 255 255 
0.0922148 0.05024 -0.0066945 -0.374859 0.391875 0.840187 0 0 255 255 
0.0974087 0.053844 -0.0022175 0.239426 0.704211 -0.668403 0 0 255 255 
0.104295 0.056275 0.00506651 0.269271 0.715729 -0.644379 0 0 255 255 
0.117431 0.061456 0.0145655 0.115408 0.939333 -0.323007 0 0 255 255 
-0.223439 -0.032908 -0.292576 -0.913764 -0.33298 -0.232722 0 0 255 255 
-0.22664 -0.027572 -0.292475 -0.983208 0.042647 -0.177438 0 0 255 255 
-0.226425 -0.025405 -0.295897 -0.971548 0.201684 -0.124168 0 0 255 255 
-0.224084 -0.021841 -0.291622 -0.943085 0.32406 -0.074667 0 0 255 255 
-0.22078 -0.018343 -0.293433 0.102111 0.903123 -0.417065 0 0 255 255 
-0.221795 -0.018483 -0.29214 0.174641 -0.981473 -0.07881 0 0 255 255 
-0.216217 -0.015491 -0.289129 -0.80284 0.594697 0.04222 0 0 255 255 
-0.216483 -0.00920601 -0.288924 0.955122 0.167401 -0.244373 0 0 255 255 
-0.216218 -0.00842302 -0.289252 -0.715988 0.693711 0.078272 0 0 255 255 
-0.209756 -0.00458901 -0.287189 0.262588 -0.963256 0.056444 0 0 255 255 
-0.209816 -0.00510399 -0.281981 0.264603 -0.962559 0.058865 0 0 255 255 
-0.205028 -5.69969e-005 -0.280558 0.408817 0.683984 -0.604181 0 0 255 255 
-0.199211 0.00023599 -0.273627 0.124443 -0.992009 0.020789 0 0 255 255 
-0.194532 0.00218599 -0.270622 0.126337 -0.989909 0.06418 0 0 255 255 
-0.192202 0.00635 -0.266816 -0.412013 0.905415 0.102323 0 0 255 255 
-0.183874 0.00624599 -0.261997 0.143243 -0.927859 0.344323 0 0 255 255 
-0.182243 0.006074 -0.259687 -0.999683 -0.023905 0.007845 0 0 255 255 
-0.17888 0.00933601 -0.253607 -0.2059 -0.90929 0.361658 0 0 255 255 
-0.173511 0.012274 -0.254617 -0.295478 0.844934 -0.445846 0 0 255 255 
-0.172695 0.015494 -0.250032 -0.293678 0.768317 -0.56872 0 0 255 255 
-0.167465 0.016613 -0.249133 -0.270334 0.749177 -0.604692 0 0 255 255 
-0.162859 0.019902 -0.244853 -0.221763 0.80602 -0.548774 0 0 255 255 
-0.160615 0.024018 -0.245503 -0.213025 0.804184 -0.554895 0 0 255 255 
-0.158146 0.027157 -0.241347 -0.098148 0.85948 -0.501658 0 0 255 255 
-0.149386 0.025999 -0.235592 0.059791 0.995869 -0.06834 0 0 255 255 
-0.0955133 0.01756 -0.175297 0.315514 0.922297 0.223204 0 0 255 255 
-0.0907256 0.019703 -0.174742 0.696114 0.695124 -0.179522 0 0 255 255 
-0.088788 0.021239 -0.169654 -0.53359 0.839646 -0.101373 0 0 255 255 
-0.0856179 0.025458 -0.167336 -0.857915 -0.098887 -0.504185 0 0 255 255 
-0.0826522 0.027995 -0.165798 -0.873183 -0.090281 -0.478959 0 0 255 255 
-0.075286 0.029673 -0.159821 -0.291099 0.947366 -0.13326 0 0 255 255 
-0.0673955 0.029245 -0.153771 0.038566 -0.998579 -0.036774 0 0 255 255 
0.0171674 0.013476 -0.0687135 -0.054481 0.723648 -0.688016 0 0 255 255 
0.0173648 0.019999 -0.0684115 -0.0306 0.756864 -0.652856 0 0 255 255 
0.0240423 0.020145 -0.0612715 0.376929 -0.920054 -0.106886 0 0 255 255 
0.0303316 0.023275 -0.0563025 0.020791 0.809027 -0.587404 0 0 255 255 
0.0331478 0.02737 -0.0521745 0.048153 0.818546 -0.57242 0 0 255 255 
0.0392553 0.028233 -0.0498905 0.077838 0.824305 -0.560769 0 0 255 255 
0.0452939 0.032991 -0.0446625 -0.107999 0.19499 0.974841 0 0 255 255 
0.0554798 0.036296 -0.0378005 0.219621 -0.827339 -0.516989 0 0 255 255 
0.0637406 0.037427 -0.0304145 0.114686 0.785316 -0.60838 0 0 255 255 
0.0697029 0.043909 -0.0264025 0.138075 0.842873 -0.520097 0 0 255 255 
0.0747902 0.046778 -0.0204845 0.195276 0.696958 -0.690012 0 0 255 255 
0.0793746 0.046609 -0.0122745 -0.215811 0.842243 0.494017 0 0 255 255 
0.0835499 0.050678 -0.0117485 -0.081354 -0.99656 -0.015796 0 0 255 255 
0.0908951 0.054009 -0.0062505 -0.117303 0.857054 0.501695 0 0 255 255 
0.0976623 0.058554 0.0022285 -0.002907 0.951349 -0.308102 0 0 255 255 
-0.226027 -0.034119 -0.289356 0.271505 -0.959188 -0.079015 0 0 255 255 
-0.224066 -0.028118 -0.288794 -0.983267 0.059381 -0.172222 0 0 255 255 
-0.22365 -0.027119 -0.292168 0.681185 -0.725883 -0.095291 0 0 255 255 
-0.222427 -0.022949 -0.291499 0.277563 0.748454 -0.602308 0 0 255 255 
-0.220941 -0.016944 -0.289077 -0.883309 0.460209 -0.089287 0 0 255 255 
-0.220521 -0.016481 -0.285657 -0.823053 0.567391 -0.025511 0 0 255 255 
-0.219511 -0.012787 -0.284824 -0.784686 0.619559 -0.020346 0 0 255 255 
-0.216118 -0.010478 -0.282822 -0.68941 0.724016 -0.022693 0 0 255 255 
-0.216233 -0.00723 -0.280719 -0.650719 0.758816 -0.027624 0 0 255 255 
-0.211475 -0.00805999 -0.281085 -0.570492 0.821053 -0.020271 0 0 255 255 
-0.206804 -0.002975 -0.274763 -0.563959 0.824475 0.046817 0 0 255 255 
-0.202783 -0.00301899 -0.272839 -0.484596 0.874731 0.00347 0 0 255 255 
-0.198781 0.00186299 -0.271501 -0.448025 0.89353 0.029638 0 0 255 255 
-0.195312 0.00152199 -0.264183 0.945212 -0.196381 -0.260784 0 0 255 255 
-0.188042 0.00344999 -0.261763 0.271807 -0.912793 0.304843 0 0 255 255 
-0.187862 0.00474499 -0.260771 0.116458 -0.992526 -0.036456 0 0 255 255 
-0.181205 0.00808398 -0.256113 0.227568 -0.92608 0.30098 0 0 255 255 
-0.179046 0.011551 -0.253821 -0.357569 0.845364 -0.396868 0 0 255 255 
-0.177671 0.011091 -0.251702 -0.194105 0.711564 -0.675278 0 0 255 255 
-0.173543 0.017701 -0.250432 0.631454 0.154995 -0.759764 0 0 255 255 
-0.168545 0.017979 -0.246428 -0.039093 -0.984452 0.171247 0 0 255 255 
-0.168193 0.021636 -0.245082 -0.144575 0.744545 -0.651729 0 0 255 255 
-0.162165 0.025072 -0.241302 -0.070196 -0.989802 0.12395 0 0 255 255 
-0.160692 0.024651 -0.240534 0.012466 -0.967232 0.253589 0 0 255 255 
-0.0953713 0.016763 -0.169335 0.528896 0.775643 0.344452 0 0 255 255 
-0.0935837 0.021248 -0.171001 -0.621026 -0.77989 0.078096 0 0 255 255 
-0.0906877 0.019935 -0.168494 -0.676313 0.733528 -0.06737 0 0 255 255 
-0.0838019 0.024409 -0.163612 0.611825 0.738746 0.282711 0 0 255 255 
-0.0815623 0.029413 -0.159283 -0.39052 0.911691 -0.127725 0 0 255 255 
