ply
format ascii 1.0
comment VCGLIB generated
element vertex 631
property float x
property float y
property float z
property float nx
property float ny
property float nz
property uchar red
property uchar green
property uchar blue
property uchar alpha
element face 0
property list uchar int vertex_indices
end_header
0.0430815 -0.174221 0.0510719 0 0 0 192 192 192 255 
-0.0879785 -0.140654 0.182666 0.911285 0.0337995 -0.410386 192 192 192 255 
-0.0894225 -0.145251 0.180315 0.887251 0.0607152 -0.457273 192 192 192 255 
-0.0907585 -0.149848 0.177909 0.871337 -0.0131783 -0.490507 192 192 192 255 
-0.0922015 -0.154444 0.175611 0.853669 -0.159492 -0.495793 192 192 192 255 
-0.0941795 -0.15872 0.174007 0.848408 -0.35436 -0.393234 192 192 192 255 
-0.0958365 -0.161874 0.172938 0.883013 -0.363171 -0.297311 192 192 192 255 
0.0715165 -0.254664 -0.0328985 0.891485 0.354646 -0.281923 192 192 192 255 
0.0719445 -0.257015 -0.0349295 0.888575 0.350789 -0.295602 192 192 192 255 
0.0723185 -0.260383 -0.0378155 0.960954 0.157478 -0.227526 192 192 192 255 
0.0719445 -0.264445 -0.0405955 0.976188 0.0803053 -0.201514 192 192 192 255 
0.0718905 -0.268614 -0.0437485 0.946867 0.0243889 -0.320701 192 192 192 255 
0.0707145 -0.272302 -0.0456195 0.92623 -0.153105 -0.344467 192 192 192 255 
0.0693255 -0.27583 -0.0471165 0.907805 -0.242843 -0.341932 192 192 192 255 
0.0678815 -0.279358 -0.0486125 0.883707 -0.39369 -0.253122 192 192 192 255 
0.0656905 -0.282511 -0.0491475 0.700392 -0.693043 -0.170708 192 192 192 255 
0.0622695 -0.285184 -0.0483985 0.499931 -0.861771 -0.0861328 192 192 192 255 
0.0591695 -0.286947 -0.0472235 0.428666 -0.903346 -0.014518 192 192 192 255 
0.0566035 -0.287856 -0.0458335 0.380578 -0.923176 0.0539175 192 192 192 255 
0.0540385 -0.288765 -0.0444435 0.344334 -0.938762 0.0126135 192 192 192 255 
0.118819 -0.0666791 0.0751245 0.99687 0.0637015 0.0468144 192 192 192 255 
0.119407 -0.0723448 0.0703139 0.980788 0.156163 -0.116908 192 192 192 255 
0.119995 -0.0767812 0.0664655 0.844386 0.254034 -0.471677 192 192 192 255 
0.119514 -0.0796675 0.0647017 0.707063 0.163816 -0.687914 192 192 192 255 
0.117644 -0.0837832 0.0630447 0.651757 0.0632896 -0.755782 192 192 192 255 
0.116201 -0.0882196 0.0609068 0.616953 0.203747 -0.760169 192 192 192 255 
0.115292 -0.0913731 0.0591963 0.630352 0.263812 -0.73011 192 192 192 255 
0.114811 -0.0942594 0.0574324 0.634925 0.383619 -0.670602 192 192 192 255 
0.11465 -0.0979475 0.0548134 0.633353 0.411969 -0.655092 192 192 192 255 
0.114276 -0.100887 0.0528357 0.71494 0.356963 -0.601197 192 192 192 255 
0.114009 -0.103239 0.0512857 0.794097 0.359984 -0.489716 192 192 192 255 
0.113957 -0.105698 0.0494684 0.877021 0.270342 -0.397177 192 192 192 255 
0.113903 -0.10821 0.0475976 0.920523 0.229664 -0.316056 192 192 192 255 
0.114062 -0.110829 0.0454596 0.93865 0.274296 -0.209042 192 192 192 255 
0.114597 -0.113715 0.0428406 0.976212 0.139391 -0.166075 192 192 192 255 
0.114543 -0.117403 0.0400612 0.964907 -0.136868 -0.224102 192 192 192 255 
0.112619 -0.121038 0.0388852 0.900086 -0.253648 -0.354272 192 192 192 255 
0.110909 -0.124833 0.0373885 0.863697 -0.379871 -0.331248 192 192 192 255 
0.108985 -0.128468 0.0362125 0.805058 -0.516405 -0.291904 192 192 192 255 
0.106366 -0.131621 0.0359455 0.660812 -0.726152 -0.189819 192 192 192 255 
0.102731 -0.134133 0.0369615 0.461353 -0.883211 -0.0842124 192 192 192 255 
0.0994175 -0.13563 0.0385111 0.388877 -0.92029 -0.0429006 192 192 192 255 
0.0958895 -0.13702 0.0403818 0.37703 -0.9262 -0.00138748 192 192 192 255 
0.0919875 -0.13873 0.0421992 0.340465 -0.940203 -0.0101279 192 192 192 255 
0.0883535 -0.14012 0.0441234 0.298837 -0.954212 0.0132365 192 192 192 255 
0.0841305 -0.141082 0.0467959 0.317006 -0.947589 0.0397781 192 192 192 255 
0.0793205 -0.141723 0.0503236 0.352036 -0.917664 0.184292 192 192 192 255 
0.0746705 -0.143059 0.0530495 0.443252 -0.882467 0.157413 192 192 192 255 
0.0709285 -0.145625 0.054172 0.675678 -0.729235 0.108053 192 192 192 255 
0.0684165 -0.148992 0.0536375 0.815469 -0.578573 0.016237 192 192 192 255 
0.0662255 -0.151932 0.0532099 0.668509 -0.730922 0.13729 192 192 192 255 
0.0625905 -0.153375 0.0551341 0.533317 -0.804158 0.262494 192 192 192 255 
0.0599715 -0.154872 0.0560962 0.629585 -0.725759 0.277301 192 192 192 255 
-0.0857335 -0.130445 0.192929 0.320726 0.594022 -0.737748 192 192 192 255 
-0.0856275 -0.133225 0.190737 0.312253 0.581656 -0.751115 192 192 192 255 
-0.0858405 -0.13718 0.187904 0.4288 0.435572 -0.791459 192 192 192 255 
-0.0865355 -0.142151 0.184697 0.701643 0.260995 -0.663007 192 192 192 255 
-0.0870705 -0.147229 0.18133 0.716107 0.216287 -0.663634 192 192 192 255 
-0.0884595 -0.151825 0.178978 0.734871 0.0361626 -0.677242 192 192 192 255 
-0.0903845 -0.156101 0.177321 0.765587 -0.208006 -0.608778 192 192 192 255 
-0.0930565 -0.160057 0.17652 0.708233 -0.336358 -0.6207 192 192 192 255 
-0.0951415 -0.162943 0.175985 0.769913 -0.364998 -0.523459 192 192 192 255 
0.0736545 -0.256107 -0.0318295 0.693088 0.449602 -0.56346 192 192 192 255 
0.0735475 -0.25926 -0.0341275 0.780381 0.36152 -0.510205 192 192 192 255 
0.0731205 -0.263322 -0.0369075 0.817874 0.254309 -0.516148 192 192 192 255 
0.0727455 -0.266316 -0.0388315 0.813563 0.328546 -0.479763 192 192 192 255 
0.0729595 -0.269576 -0.0415575 0.908659 0.0777664 -0.410233 192 192 192 255 
0.0717305 -0.273157 -0.0432145 0.91127 -0.189982 -0.365369 192 192 192 255 
0.0704475 -0.276738 -0.0449245 0.896267 -0.268253 -0.353193 192 192 192 255 
0.0685765 -0.280106 -0.0458865 0.817375 -0.539781 -0.201333 192 192 192 255 
0.0657435 -0.282992 -0.0457265 0.635809 -0.770444 -0.0465009 192 192 192 255 
0.0618425 -0.284916 -0.0440165 0.47267 -0.870543 0.136883 192 192 192 255 
0.0580475 -0.286359 -0.0420385 0.536028 -0.826951 0.16978 192 192 192 255 
0.0557485 -0.28791 -0.0413965 0.517587 -0.848579 0.109626 192 192 192 255 
0.12069 -0.08079 0.0651827 0.774278 0.000648426 -0.632845 192 192 192 255 
0.119141 -0.0848522 0.0633654 0.68778 0.122939 -0.715434 192 192 192 255 
0.117857 -0.0890748 0.0612274 0.714616 0.107118 -0.691267 192 192 192 255 
0.116789 -0.0934042 0.0588756 0.276374 0.45604 -0.845958 192 192 192 255 
0.116414 -0.0982682 0.0554013 0.25087 0.544197 -0.800571 192 192 192 255 
0.11588 -0.102972 0.0523012 0.467182 0.436916 -0.768665 192 192 192 255 
0.115399 -0.107675 0.0490942 0.242487 0.550051 -0.799152 192 192 192 255 
0.115185 -0.11131 0.0465286 0.504068 0.54618 -0.669031 192 192 192 255 
0.115131 -0.114998 0.0438027 0.687306 0.388765 -0.613574 192 192 192 255 
0.114276 -0.119381 0.0411301 0.720752 0.0794834 -0.688621 192 192 192 255 
0.112727 -0.123283 0.0394732 0.517676 0.0521468 -0.853986 192 192 192 255 
0.110642 -0.126811 0.0385111 0.751449 -0.26396 -0.60469 192 192 192 255 
0.108077 -0.130018 0.0381369 0.758246 -0.649152 -0.0605453 192 192 192 255 
0.104762 -0.13269 0.0387783 0.563797 -0.822132 0.0789495 192 192 192 255 
0.100594 -0.134828 0.0405422 0.437881 -0.896398 0.0687874 192 192 192 255 
0.0972795 -0.136378 0.0420388 0.188402 -0.9341 -0.303252 192 192 192 255 
0.0947135 -0.137127 0.0435888 0.360247 -0.932023 0.0394276 192 192 192 255 
0.0907585 -0.138302 0.0459407 0.453946 -0.854231 0.253421 192 192 192 255 
0.0864825 -0.139852 0.048239 0.416795 -0.871886 0.257093 192 192 192 255 
0.0815655 -0.140387 0.0518736 0.374015 -0.89785 0.232334 192 192 192 255 
0.0767545 -0.141616 0.0548668 0.40784 -0.883181 0.231643 192 192 192 255 
0.0716765 -0.14338 0.0576997 0.563531 -0.794297 0.226994 192 192 192 255 
0.0682025 -0.14616 0.0583946 0.65303 -0.756924 -0.0248652 192 192 192 255 
0.0647815 -0.148992 0.0590894 0.673257 -0.694951 0.252524 192 192 192 255 
0.0612545 -0.151077 0.0603722 0 0 0 192 192 192 255 
0.0584745 -0.153055 0.0611205 0 0 0 192 192 192 255 
0.0560155 -0.1553 0.0614412 0.565508 -0.768285 0.299899 192 192 192 255 
-0.0835955 -0.130338 0.193944 0.673006 0.51883 -0.527141 192 192 192 255 
-0.0834355 -0.13579 0.189668 0.334242 0.497361 -0.800571 192 192 192 255 
-0.0843975 -0.140654 0.186782 0.451317 0.39421 -0.800569 192 192 192 255 
-0.0855205 -0.145411 0.184109 0.707453 0.264902 -0.655238 192 192 192 255 
-0.0866965 -0.150115 0.18149 0.879904 0.0115402 -0.475011 192 192 192 255 
-0.0885135 -0.154498 0.179673 0.862937 -0.300342 -0.406367 192 192 192 255 
-0.0908115 -0.15856 0.178444 0.822632 -0.369351 -0.432268 192 192 192 255 
-0.0925225 -0.16166 0.177535 0.676049 -0.264017 -0.687934 192 192 192 255 
0.0741895 -0.251831 -0.0266445 0.727093 0.534691 -0.430629 192 192 192 255 
0.0748835 -0.255358 -0.0298515 0.497393 0.570613 -0.653453 192 192 192 255 
0.0746705 -0.259528 -0.0328445 0.464702 0.504556 -0.727651 192 192 192 255 
0.0744025 -0.263697 -0.0358385 0.40798 0.476382 -0.778853 192 192 192 255 
0.0740825 -0.267759 -0.0386715 0.435001 0.533142 -0.725626 192 192 192 255 
0.0732265 -0.271554 -0.0408095 0.682624 0.0899984 -0.725207 192 192 192 255 
0.0714635 -0.274921 -0.0419845 0.930318 -0.299939 -0.211057 192 192 192 255 
0.0700735 -0.278502 -0.0435355 0.674915 -0.228841 -0.701514 192 192 192 255 
0.0672945 -0.281442 -0.0434285 0.652604 -0.706504 -0.273788 192 192 192 255 
0.0635525 -0.282885 -0.0415035 0.263174 -0.962143 -0.0708567 192 192 192 255 
0.0599175 -0.284382 -0.0396335 0.146094 -0.813185 -0.563371 192 192 192 255 
0.120744 -0.0804158 0.0650224 0.857425 -0.130589 -0.497765 192 192 192 255 
0.119141 -0.0844246 0.063312 0.783369 -0.0123291 -0.621434 192 192 192 255 
0.117911 -0.0886472 0.0611205 0.837131 -0.0155492 -0.546781 192 192 192 255 
0.116735 -0.0916938 0.0597308 0.47002 0.314836 -0.824597 192 192 192 255 
0.116094 -0.0944198 0.0581808 0.430123 0.465211 -0.773675 192 192 192 255 
0.115987 -0.0981613 0.0554013 0.49935 0.515956 -0.696016 192 192 192 255 
0.115719 -0.102384 0.0524616 0.848753 0.274024 -0.452249 192 192 192 255 
0.115131 -0.105805 0.0503771 0.7407 0.33888 -0.580107 192 192 192 255 
0.114864 -0.108103 0.048827 0.741384 0.351081 -0.57192 192 192 192 255 
0.114864 -0.110669 0.0469028 0.794987 0.347585 -0.497172 192 192 192 255 
0.114864 -0.113769 0.0445509 0.861031 0.281927 -0.423253 192 192 192 255 
0.114491 -0.11719 0.0422526 0.902746 0.0699395 -0.424451 192 192 192 255 
0.113581 -0.120878 0.0402215 0.927359 -0.226008 -0.298205 192 192 192 255 
0.111658 -0.124566 0.0390456 0.668751 -0.17859 -0.721718 192 192 192 255 
0.109626 -0.128093 0.0379231 0.817528 -0.555203 -0.152962 192 192 192 255 
0.107008 -0.1313 0.0376025 0.570209 -0.740862 -0.354945 192 192 192 255 
0.103265 -0.133706 0.0388318 0.377325 -0.880263 -0.287685 192 192 192 255 
0.0998985 -0.135149 0.0404353 0.371423 -0.92278 -0.10258 192 192 192 255 
0.0963705 -0.136539 0.042306 0.213845 -0.952732 -0.215806 192 192 192 255 
0.0927365 -0.137821 0.0442837 0.343902 -0.93899 0.00534925 192 192 192 255 
0.0890485 -0.139158 0.0462614 0.353835 -0.934649 0.0350923 192 192 192 255 
0.0846115 -0.140654 0.0487735 0.362507 -0.929267 0.0710788 192 192 192 255 
0.0796405 -0.141189 0.0524616 0.335011 -0.931061 0.144541 192 192 192 255 
0.0760595 -0.141991 0.05476 0.39099 -0.898006 0.201772 192 192 192 255 
0.0735475 -0.142846 0.0561497 0.455801 -0.870283 0.186687 192 192 192 255 
0.0700735 -0.144449 0.0578066 0.551127 -0.755426 -0.354388 192 192 192 255 
0.0668125 -0.147336 0.0582342 0.652363 -0.750802 0.103527 192 192 192 255 
0.0636595 -0.150275 0.0586083 0.674086 -0.689338 0.265368 192 192 192 255 
0.0596505 -0.153375 0.059517 0.565507 -0.768286 0.299899 192 192 192 255 
0.0545195 -0.156422 0.0613878 0.565509 -0.768284 0.299899 192 192 192 255 
-0.0840765 -0.128468 0.195174 0.471529 0.616626 -0.630422 192 192 192 255 
-0.0834895 -0.132797 0.191379 0.822625 0.352481 -0.446144 192 192 192 255 
-0.0842375 -0.137768 0.188225 0.547952 0.391835 -0.739063 192 192 192 255 
-0.0852525 -0.142632 0.185392 0.664464 0.276162 -0.694422 192 192 192 255 
-0.0862685 -0.147389 0.182613 0.820022 0.129507 -0.557487 192 192 192 255 
-0.0873375 -0.152146 0.17994 0.916223 -0.229559 -0.328387 192 192 192 255 
-0.0896895 -0.156262 0.178711 0.851149 -0.283884 -0.441538 192 192 192 255 
-0.0919345 -0.160324 0.177482 0.846177 -0.380366 -0.373239 192 192 192 255 
0.0746165 -0.253701 -0.0286755 0.992192 0.0841737 0.0920284 192 192 192 255 
0.0746705 -0.255839 -0.0303325 0.756629 0.367104 -0.541061 192 192 192 255 
0.0744025 -0.25894 -0.0324705 0.620585 0.413245 -0.66641 192 192 192 255 
0.0741895 -0.263055 -0.0354645 0.623355 0.429942 -0.65313 192 192 192 255 
0.0738145 -0.266102 -0.0374415 0.535541 0.459885 -0.708309 192 192 192 255 
0.0738685 -0.269255 -0.0398465 0.990512 -0.123873 -0.0595186 192 192 192 255 
0.0724785 -0.272837 -0.0414505 0.895004 -0.261523 -0.361349 192 192 192 255 
0.0711425 -0.276364 -0.0430535 0.858049 -0.268719 -0.437656 192 192 192 255 
0.0691115 -0.279625 -0.0438025 0.793435 -0.607644 -0.0350838 192 192 192 255 
0.0668125 -0.281763 -0.0435355 0.568369 -0.821634 -0.0432945 192 192 192 255 
0.0641935 -0.282671 -0.0421455 0.428675 -0.896444 0.112362 192 192 192 255 
0.0614145 -0.283527 -0.0404885 -0.305852 -0.359701 -0.881516 192 192 192 255 
0.0591695 -0.284596 -0.0394725 0.0888906 -0.777778 -0.622222 192 192 192 255 
0.118713 -0.0808969 0.0627774 0.769673 -0.0740656 -0.634127 192 192 192 255 
0.117163 -0.0843177 0.0614412 0.791993 -0.0138602 -0.610372 192 192 192 255 
0.115773 -0.0883799 0.059517 0.801394 0.0497276 -0.596067 192 192 192 255 
0.114704 -0.0927628 0.0571118 0.883063 0.139314 -0.448097 192 192 192 255 
0.114437 -0.0963974 0.0545462 0.912131 0.272879 -0.305866 192 192 192 255 
0.114704 -0.0991234 0.0522478 0.956906 0.230656 -0.176432 192 192 192 255 
0.115399 -0.102117 0.0494149 0.99393 0.102231 -0.0406552 192 192 192 255 
0.115559 -0.105377 0.0468493 0.998976 -0.0434868 0.0124919 192 192 192 255 
0.115131 -0.108851 0.0445509 0.997975 -0.0587144 0.0244802 192 192 192 255 
0.115131 -0.113181 0.0413439 0.995204 -0.0977548 0.00369059 192 192 192 255 
0.114062 -0.117457 0.0389387 0.964839 -0.243068 -0.100017 192 192 192 255 
0.112673 -0.121466 0.0370675 0.910496 -0.362551 -0.19888 192 192 192 255 
0.110588 -0.124993 0.0360525 0.857595 -0.442663 -0.26188 192 192 192 255 
0.108504 -0.128468 0.0351975 0.781078 -0.567545 -0.260402 192 192 192 255 
0.105298 -0.131247 0.0356245 0.541233 -0.805745 -0.240504 192 192 192 255 
0.101555 -0.133652 0.0368005 0.403026 -0.898622 -0.173343 192 192 192 255 
0.0972795 -0.13579 0.038618 0.349181 -0.926715 -0.138825 192 192 192 255 
0.0940725 -0.13734 0.0400612 0.331808 -0.93348 -0.136084 192 192 192 255 
0.0910795 -0.138463 0.0416646 0.311031 -0.946611 -0.0847821 192 192 192 255 
0.0858945 -0.140387 0.0443906 0.275779 -0.958069 -0.0777804 192 192 192 255 
0.0818325 -0.14183 0.0466355 0.124745 -0.979031 -0.161052 192 192 192 255 
0.0783585 -0.142044 0.049308 0.263058 -0.964778 -0.00179738 192 192 192 255 
0.0742955 -0.14322 0.0517667 0.481247 -0.870985 0.0989218 192 192 192 255 
0.0708215 -0.145946 0.0524616 0.706414 -0.703399 0.0788032 192 192 192 255 
0.0685765 -0.149473 0.0516064 0.825523 -0.560216 0.0683392 192 192 192 255 
0.0657975 -0.152681 0.051446 0.673097 -0.719479 0.171147 192 192 192 255 
0.0617885 -0.155086 0.0528892 0.623648 -0.742895 0.24325 192 192 192 255 
0.0582605 -0.158186 0.0534237 0.586273 -0.765373 0.265495 192 192 192 255 
0.0534505 -0.160484 0.0556151 0.514511 -0.810808 0.279051 192 192 192 255 
0.0496015 -0.16305 0.0567376 0 0 0 192 192 192 255 
-0.0866965 -0.132369 0.190096 0.647052 0.457347 -0.610048 192 192 192 255 
-0.0865895 -0.137768 0.185927 0.828925 0.266233 -0.491938 192 192 192 255 
-0.0872305 -0.142792 0.182666 0.882672 0.137573 -0.449403 192 192 192 255 
-0.0881925 -0.147603 0.179834 0.86091 0.0376712 -0.507361 192 192 192 255 
-0.0897965 -0.152093 0.177749 0.823384 -0.0885008 -0.560542 192 192 192 255 
-0.0913465 -0.156582 0.175664 0.833015 -0.24262 -0.497213 192 192 192 255 
-0.0938585 -0.160591 0.174702 0.780436 -0.34242 -0.523133 192 192 192 255 
0.0737085 -0.257176 -0.0338075 0.920988 0.223885 -0.318837 192 192 192 255 
0.0731735 -0.261184 -0.0364795 0.932048 0.181974 -0.313323 192 192 192 255 
0.0730665 -0.265354 -0.0394725 0.951393 0.145104 -0.271656 192 192 192 255 
0.0729065 -0.269469 -0.0424665 0.922687 -0.0412933 -0.383331 192 192 192 255 
0.0714635 -0.27305 -0.0440165 0.911268 -0.187769 -0.366515 192 192 192 255 
0.0699135 -0.276525 -0.0453525 0.889968 -0.304306 -0.339639 192 192 192 255 
0.0683625 -0.279945 -0.0467425 0.802716 -0.543738 -0.244941 192 192 192 255 
0.0653165 -0.282778 -0.0463145 0.588022 -0.806843 -0.0568782 192 192 192 255 
0.0613615 -0.285184 -0.0449245 0.488077 -0.871662 0.0445665 192 192 192 255 
0.0564975 -0.287215 -0.0425195 0.420963 -0.905055 0.0605389 192 192 192 255 
0.116895 -0.0796675 0.0595705 0.910575 -0.204901 -0.358983 192 192 192 255 
0.114704 -0.0857609 0.0567376 0.965296 -0.179227 -0.18995 192 192 192 255 
0.113688 -0.0914266 0.0532633 0.998459 -0.0326185 -0.0449047 192 192 192 255 
0.114491 -0.097413 0.0481321 0.993597 0.11117 0.0201659 192 192 192 255 
0.115185 -0.104789 0.0420388 0.999624 0.0230292 -0.0149118 192 192 192 255 
0.115131 -0.110081 0.0381369 0.998467 -0.0172403 -0.052603 192 192 192 255 
0.114757 -0.114784 0.0348235 0.971126 -0.190636 -0.14343 192 192 192 255 
0.112619 -0.119541 0.0330055 0.895611 -0.386337 -0.22051 192 192 192 255 
0.10936 -0.124673 0.0317765 0.834746 -0.471262 -0.284801 192 192 192 255 
0.106205 -0.129911 0.0303865 0.680061 -0.650094 -0.33896 192 192 192 255 
0.101983 -0.133225 0.0312955 0.40282 -0.864627 -0.300261 192 192 192 255 
0.0971195 -0.135256 0.0336475 0.253636 -0.928519 -0.271149 192 192 192 255 
0.0905445 -0.137714 0.0370675 0.220169 -0.930935 -0.291352 192 192 192 255 
0.0855205 -0.139692 0.0396335 0.12598 -0.946094 -0.298389 192 192 192 255 
0.0799615 -0.141082 0.0431078 0.209181 -0.950023 -0.231732 192 192 192 255 
0.0751515 -0.142953 0.0455665 0.428113 -0.901053 -0.0694429 192 192 192 255 
0.0705545 -0.146213 0.0468493 0.781032 -0.622688 0.047412 192 192 192 255 
0.0684165 -0.15097 0.0449786 0.822577 -0.548363 0.15055 192 192 192 255 
0.0641935 -0.155727 0.0448182 0.703764 -0.672543 0.228915 192 192 192 255 
0.0584215 -0.160751 0.0456734 0.622169 -0.73881 0.258971 192 192 192 255 
0.0525955 -0.16941 0.0438561 0.703004 -0.630871 0.328308 192 192 192 255 
0.0484265 -0.174168 0.0436423 0.73496 -0.591804 0.331063 192 192 192 255 
0.0452725 -0.179566 0.0420922 0.769334 -0.545081 0.333184 192 192 192 255 
0.0401945 -0.181544 0.0447113 0 0 0 192 192 192 255 
-0.0881925 -0.130338 0.186354 0.937905 0.217957 -0.269867 192 192 192 255 
-0.0881925 -0.136111 0.182025 0.935565 0.155739 -0.31696 192 192 192 255 
-0.0887805 -0.142418 0.177749 0.930272 0.0441415 -0.364204 192 192 192 255 
-0.0909725 -0.149313 0.174381 0.92162 -0.136417 -0.363328 192 192 192 255 
-0.0938045 -0.155781 0.171816 0.87135 -0.315004 -0.376193 192 192 192 255 
-0.0961565 -0.159843 0.17064 0.879421 -0.37521 -0.292978 192 192 192 255 
0.0708215 -0.251029 -0.0322035 0.874272 0.434719 -0.216028 192 192 192 255 
0.0722645 -0.256534 -0.0374415 0.932048 0.286928 -0.221266 192 192 192 255 
0.0723185 -0.261826 -0.0415575 0.966615 0.110796 -0.23104 192 192 192 255 
0.0717835 -0.26685 -0.0448715 0.953435 0.0247461 -0.300583 192 192 192 255 
0.0702335 -0.272462 -0.0478645 0.941145 -0.210552 -0.264412 192 192 192 255 
0.0680425 -0.277701 -0.0500025 0.881498 -0.392695 -0.262205 192 192 192 255 
0.0644075 -0.282351 -0.0505905 0.666889 -0.727376 -0.161811 192 192 192 255 
0.0602925 -0.285718 -0.0497355 0.502129 -0.858965 -0.100225 192 192 192 255 
0.0557485 -0.28791 -0.0477045 0.411798 -0.91093 -0.025079 192 192 192 255 
0.0522745 -0.289513 -0.0461545 0.412923 -0.910616 -0.016498 192 192 192 255 
0.115345 -0.0842642 0.0506443 0.982001 -0.185713 0.0344201 192 192 192 255 
0.114597 -0.0945267 0.0435354 0.999398 0.0303473 0.0168283 192 192 192 255 
0.115185 -0.102224 0.0373355 0.999632 0.0239943 -0.0126661 192 192 192 255 
0.114543 -0.109225 0.0326845 0.989287 -0.0767417 -0.124189 192 192 192 255 
0.112993 -0.115586 0.0291035 0.928803 -0.271248 -0.252488 192 192 192 255 
0.109626 -0.121893 0.0270725 0.836472 -0.474595 -0.273998 192 192 192 255 
0.105298 -0.127559 0.0262705 0.640176 -0.647955 -0.412709 192 192 192 255 
0.100165 -0.131461 0.0273935 0.308077 -0.822913 -0.477392 192 192 192 255 
0.0933775 -0.134401 0.0306535 0.141215 -0.893705 -0.425852 192 192 192 255 
0.0874985 -0.136752 0.0335935 0.171111 -0.905368 -0.388627 192 192 192 255 
0.0808165 -0.138623 0.0375485 0.317187 -0.921987 -0.22211 192 192 192 255 
0.0738145 -0.142739 0.0400077 0.651748 -0.75694 0.0476064 192 192 192 255 
0.0705015 -0.149206 0.0378697 0.858188 -0.468775 0.209195 192 192 192 255 
0.0675075 -0.155834 0.0352505 0.808418 -0.513318 0.288037 192 192 192 255 
0.0636595 -0.163157 0.0327915 0.79012 -0.516425 0.330176 192 192 192 255 
0.0593295 -0.168662 0.0322035 0 0 0 192 192 192 255 
0.0517935 -0.176145 0.0326315 0.738742 -0.586918 0.331343 192 192 192 255 
0.0485865 -0.184002 0.0292645 0 0 0 192 192 192 255 
0.0413705 -0.18614 0.0334865 0 0 0 192 192 192 255 
-0.0910785 -0.141884 0.172404 0.937574 -0.0186987 -0.347283 192 192 192 255 
-0.0924685 -0.149099 0.168128 0.950322 -0.217438 -0.222729 192 192 192 255 
-0.0950875 -0.15562 0.165348 0.928526 -0.343639 -0.140542 192 192 192 255 
-0.0967445 -0.160057 0.163371 0.944099 -0.322808 -0.0668667 192 192 192 255 
0.0711955 -0.25632 -0.0429475 0.960183 0.148543 -0.23661 192 192 192 255 
0.0705545 -0.264071 -0.0482925 0.95499 0.0955621 -0.280823 192 192 192 255 
0.0697525 -0.270111 -0.0521935 0.95284 -0.123713 -0.277112 192 192 192 255 
0.0677215 -0.275456 -0.0545455 0.921009 -0.268197 -0.282512 192 192 192 255 
0.0648885 -0.281496 -0.0567905 0.77664 -0.594057 -0.209587 192 192 192 255 
0.0584745 -0.285932 -0.0549195 0.489172 -0.868891 -0.0757604 192 192 192 255 
0.0528625 -0.288658 -0.0524615 0.408876 -0.910225 -0.0656521 192 192 192 255 
0.0656905 -0.476054 -0.202228 0.963596 -0.218284 -0.154388 192 192 192 255 
0.0641405 -0.481399 -0.205008 0.96305 -0.235502 0.130666 192 192 192 255 
0.0612005 -0.487279 -0.206985 0.830398 -0.541957 0.129313 192 192 192 255 
0.0570315 -0.492143 -0.207252 0.621417 -0.625242 -0.472137 192 192 192 255 
0.0526485 -0.495296 -0.206077 0.495254 -0.821093 -0.283778 192 192 192 255 
0.114223 -0.0870436 0.041825 0.996836 0.0288452 -0.0740694 192 192 192 255 
0.114491 -0.0938318 0.0365335 0.99856 0.0535231 0.0036793 192 192 192 255 
0.115079 -0.101742 0.0301725 0.996546 -0.0190936 -0.0808232 192 192 192 255 
0.113795 -0.108905 0.0258965 0.968395 -0.164364 -0.187606 192 192 192 255 
0.110642 -0.116655 0.0225825 0.897494 -0.36256 -0.251106 192 192 192 255 
0.107008 -0.122695 0.0209255 0.727265 -0.596237 -0.339982 192 192 192 255 
0.101448 -0.127559 0.0216745 0.46482 -0.784697 -0.410114 192 192 192 255 
0.0942865 -0.131407 0.0244535 0.219329 -0.902893 -0.3697 192 192 192 255 
0.0870175 -0.134026 0.0282485 0.255161 -0.897711 -0.359178 192 192 192 255 
0.0798545 -0.138035 0.0309215 0.638929 -0.748306 -0.17835 192 192 192 255 
0.0752585 -0.144823 0.0295315 0.863194 -0.488078 0.129136 192 192 192 255 
0.0734945 -0.152146 0.0254155 0.89938 -0.380406 0.215424 192 192 192 255 
0.0710885 -0.159095 0.0221015 0.848127 -0.433825 0.304098 192 192 192 255 
0.0677755 -0.166578 0.0191085 0.783531 -0.525574 0.331437 192 192 192 255 
0.0629645 -0.17235 0.0186275 0.707912 -0.618369 0.341291 192 192 192 255 
0.0574055 -0.183842 0.0144055 0.698186 -0.651408 0.296991 192 192 192 255 
0.0516865 -0.190096 0.0142985 0.717136 -0.619928 0.318443 192 192 192 255 
0.0459135 -0.197418 0.0134425 0.722635 -0.60806 0.328728 192 192 192 255 
0.0390185 -0.200893 0.0163825 0 0 0 192 192 192 255 
0.0698595 -0.253808 -0.0475975 0.946133 0.16057 -0.281159 192 192 192 255 
0.0690045 -0.259741 -0.0514455 0.954199 0.0940055 -0.284019 192 192 192 255 
0.0686305 -0.266904 -0.0564695 0.939176 0.00474339 -0.343403 192 192 192 255 
0.0661715 -0.274119 -0.0599445 0.882219 -0.207829 -0.422489 192 192 192 255 
0.0628045 -0.280908 -0.0623495 0.758819 -0.460966 -0.460113 192 192 192 255 
0.0577795 -0.285932 -0.0620285 0.522872 -0.803428 -0.284794 192 192 192 255 
0.0511525 -0.289299 -0.0592495 0.39104 -0.906609 -0.158579 192 192 192 255 
0.0665995 -0.470068 -0.205756 0.991779 -0.114585 -0.0569594 192 192 192 255 
0.0646215 -0.476161 -0.208749 0.988504 -0.135275 0.0675303 192 192 192 255 
0.0667065 -0.483056 -0.215537 0.915713 -0.341678 0.211484 192 192 192 255 
0.0634995 -0.488989 -0.217355 0.831776 -0.545253 0.104153 192 192 192 255 
0.0520605 -0.493693 -0.211742 0.521706 -0.787397 -0.328372 192 192 192 255 
0.0471965 -0.496953 -0.210353 0.476252 -0.831888 -0.284862 192 192 192 255 
0.11465 -0.0942594 0.0276075 0.99657 0.0304181 -0.0769557 192 192 192 255 
0.113635 -0.102705 0.0221015 0.974815 -0.0599763 -0.2148 192 192 192 255 
0.11139 -0.111043 0.0176655 0.93694 -0.244758 -0.249475 192 192 192 255 
0.108023 -0.118098 0.0150465 0.78694 -0.507692 -0.350677 192 192 192 255 
0.102036 -0.123817 0.0154205 0.550241 -0.725248 -0.413825 192 192 192 255 
0.0959435 -0.128307 0.0168105 0.34908 -0.863157 -0.364833 192 192 192 255 
0.0890485 -0.13114 0.0201245 0.301355 -0.906414 -0.295972 192 192 192 255 
0.0816185 -0.134882 0.0231705 0.609672 -0.776217 -0.160583 192 192 192 255 
0.0770755 -0.14167 0.0216745 0.911919 -0.409033 0.0330982 192 192 192 255 
0.0753645 -0.149848 0.0169175 0.954568 -0.240454 0.176014 192 192 192 255 
0.0756855 -0.15872 0.0100225 0.922084 -0.308 0.234302 192 192 192 255 
0.0731735 -0.165455 0.00697553 0.85421 -0.458637 0.244903 192 192 192 255 
0.0695385 -0.172671 0.00440952 0.843078 -0.491333 0.218658 192 192 192 255 
0.0663855 -0.180582 0.000935495 0.785627 -0.596291 0.165009 192 192 192 255 
0.0607735 -0.186301 0.00109553 0.7302 -0.646464 0.221114 192 192 192 255 
0.0559095 -0.192822 -2.64645e-005 0.785601 -0.574597 0.229498 192 192 192 255 
0.0521145 -0.199931 -0.00232446 0.847463 -0.442579 0.29314 192 192 192 255 
0.0500295 -0.206826 -0.00579947 0.843156 -0.422479 0.332564 192 192 192 255 
0.0509915 -0.214041 -0.0118925 0.898247 -0.272171 0.345074 192 192 192 255 
0.0513655 -0.220936 -0.0172905 0.927367 -0.227049 0.297388 192 192 192 255 
0.0518465 -0.227832 -0.0227965 0.980442 -0.0738316 0.182437 192 192 192 255 
0.0543595 -0.233978 -0.0293705 0.965683 0.247675 0.0781936 192 192 192 255 
0.0612005 -0.240553 -0.0396335 0.692802 0.699778 -0.174175 192 192 192 255 
0.0665455 -0.24718 -0.0487735 0.747855 0.570384 -0.339668 192 192 192 255 
0.0676685 -0.25461 -0.0551875 0.913856 0.210301 -0.347333 192 192 192 255 
0.0667595 -0.26065 -0.0590355 0.940211 0.107111 -0.323313 192 192 192 255 
0.0655305 -0.267385 -0.0630975 0.914302 -0.0934235 -0.394112 192 192 192 255 
0.0623235 -0.27428 -0.0656635 0.834684 -0.265154 -0.482696 192 192 192 255 
0.0585815 -0.280854 -0.0676945 0.684554 -0.509073 -0.521757 192 192 192 255 
0.0524345 -0.286466 -0.0669465 0.500668 -0.794515 -0.343624 192 192 192 255 
0.0451125 -0.290582 -0.0642205 0.42523 -0.900789 -0.0880824 192 192 192 255 
0.0386985 -0.293094 -0.0610665 0.393972 -0.913253 0.103708 192 192 192 255 
0.0300395 -0.294965 -0.0556685 0.578722 -0.78707 0.213545 192 192 192 255 
0.0648885 -0.462104 -0.207039 0.937689 0.325135 0.122581 192 192 192 255 
0.0666525 -0.467395 -0.212437 0.98372 0.12942 0.124678 192 192 192 255 
0.0695925 -0.472901 -0.218851 0.999487 0.0313268 -0.0067379 192 192 192 255 
0.0684695 -0.479903 -0.223181 0.955655 -0.210621 -0.20582 192 192 192 255 
0.0648885 -0.487172 -0.225746 0.81783 -0.490421 -0.301067 192 192 192 255 
0.0592765 -0.493479 -0.226014 0.647974 -0.653014 -0.39205 192 192 192 255 
0.0504575 -0.5 -0.223876 0.512954 -0.797709 -0.317079 192 192 192 255 
0.112405 -0.0999786 0.0163825 0.970269 -0.072779 -0.230827 192 192 192 255 
0.110588 -0.107943 0.0118925 0.939594 -0.201321 -0.276825 192 192 192 255 
0.107114 -0.114945 0.00938052 0.786457 -0.483275 -0.384618 192 192 192 255 
0.101341 -0.120771 0.00948751 0.56727 -0.704038 -0.427241 192 192 192 255 
0.0946605 -0.126009 0.0107705 0.379463 -0.819277 -0.429875 192 192 192 255 
0.0868565 -0.129483 0.0142445 0.395682 -0.855 -0.335276 192 192 192 255 
0.0808705 -0.134133 0.0154745 0.758479 -0.635324 -0.145163 192 192 192 255 
0.0781975 -0.140868 0.0125345 0.959346 -0.277097 0.0536007 192 192 192 255 
0.0772355 -0.147442 0.00836551 0.980714 -0.133169 0.143062 192 192 192 255 
0.0780375 -0.154979 0.00205851 0.974171 -0.143089 0.174692 192 192 192 255 
0.0771285 -0.162622 -0.00291249 0.916399 -0.386087 0.105595 192 192 192 255 
0.0730135 -0.169571 -0.00494349 0.877676 -0.46695 0.107905 192 192 192 255 
0.0699135 -0.177054 -0.00809747 0.864976 -0.49586 0.0770671 192 192 192 255 
0.0649955 -0.183468 -0.00905949 0.773994 -0.62468 0.103482 192 192 192 255 
0.0598645 -0.189775 -0.00980747 0.826237 -0.525815 0.202114 192 192 192 255 
0.0578865 -0.197793 -0.0142445 0.898407 -0.353529 0.260541 192 192 192 255 
0.0570845 -0.205276 -0.0191615 0.933408 -0.28494 0.218079 192 192 192 255 
0.0559625 -0.212545 -0.0236515 0.939994 -0.27591 0.200711 192 192 192 255 
0.0544655 -0.220616 -0.0285155 0.96141 -0.242492 0.129954 192 192 192 255 
0.0529695 -0.227564 -0.0325245 0.994225 -0.00872532 0.106964 192 192 192 255 
0.0546265 -0.233764 -0.0385105 0.957019 0.288614 -0.0285926 192 192 192 255 
0.0601855 -0.241835 -0.0488265 0.708916 0.679927 -0.18745 192 192 192 255 
0.0646745 -0.250922 -0.0591425 0.87105 0.409676 -0.270992 192 192 192 255 
0.0649955 -0.257871 -0.0645945 0.960668 0.124398 -0.24828 192 192 192 255 
0.0636055 -0.265514 -0.0692975 0.937975 -0.16217 -0.306438 192 192 192 255 
0.0601855 -0.272302 -0.0716495 0.841706 -0.386338 -0.377193 192 192 192 255 
0.0558555 -0.278663 -0.0729325 0.72141 -0.501819 -0.477226 192 192 192 255 
0.0504575 -0.284542 -0.0731465 0.659291 -0.662552 -0.355471 192 192 192 255 
0.0442035 -0.290101 -0.0723445 0.639756 -0.758864 -0.121809 192 192 192 255 
0.0388055 -0.295018 -0.0717565 0.51691 -0.85411 0.0574427 192 192 192 255 
0.0304135 -0.297851 -0.0673205 0.487142 -0.861665 0.142216 192 192 192 255 
0.0246405 -0.301646 -0.0656635 0.525436 -0.842965 0.115444 192 192 192 255 
0.0156075 -0.305334 -0.0613875 0.557261 -0.818248 0.141174 192 192 192 255 
0.00983548 -0.310198 -0.0605325 0.636027 -0.762055 0.121419 192 192 192 255 
0.0621625 -0.456385 -0.209818 0.841161 0.53651 0.0678655 192 192 192 255 
0.0670805 -0.46328 -0.218798 0.931613 0.359881 -0.0508189 192 192 192 255 
0.0678815 -0.469213 -0.223876 0.900358 0.224764 -0.372607 192 192 192 255 
0.0662255 -0.476696 -0.228205 0.834072 -0.0179865 -0.551362 192 192 192 255 
0.0630715 -0.483324 -0.23061 0.633337 -0.257919 -0.729631 192 192 192 255 
0.0572455 -0.490593 -0.231412 0.602851 -0.5193 -0.605721 192 192 192 255 
0.0516335 -0.496312 -0.231252 0.546976 -0.735079 -0.400595 192 192 192 255 
0.110107 -0.102384 0.00820452 0.947706 -0.173884 -0.267616 192 192 192 255 
0.107596 -0.109653 0.00473052 0.850319 -0.356125 -0.38747 192 192 192 255 
0.102731 -0.116121 0.00366151 0.664004 -0.612502 -0.428883 192 192 192 255 
0.0970655 -0.120824 0.00451651 0.499536 -0.767474 -0.401806 192 192 192 255 
0.0914535 -0.124352 0.00622752 0.368437 -0.831049 -0.416668 192 192 192 255 
0.0848255 -0.128521 0.00815153 0.569798 -0.761675 -0.308515 192 192 192 255 
0.0800685 -0.133973 0.00777751 0.900754 -0.428332 -0.0719368 192 192 192 255 
0.0787325 -0.140227 0.00414252 0.978995 -0.180445 0.0949109 192 192 192 255 
0.0784115 -0.147175 -0.000774503 0.983807 -0.0893221 0.155389 192 192 192 255 
0.0792665 -0.154712 -0.00708148 0.989224 -0.138955 0.0461324 192 192 192 255 
0.0776095 -0.160751 -0.0103425 0.948866 -0.315567 -0.00846537 192 192 192 255 
0.0749905 -0.167326 -0.0131755 0.901197 -0.431679 0.0386964 192 192 192 255 
0.0712495 -0.174381 -0.0155805 0.88794 -0.459958 -0.000412027 192 192 192 255 
0.0674005 -0.181437 -0.0179325 0.853278 -0.519197 0.0484866 192 192 192 255 
0.0631245 -0.188118 -0.0195895 0.862993 -0.485692 0.139093 192 192 192 255 
0.0606125 -0.194639 -0.0225295 0.92596 -0.333773 0.176615 192 192 192 255 
0.0598105 -0.201 -0.0266445 0.940847 -0.29765 0.1619 192 192 192 255 
0.0581535 -0.206826 -0.0297445 0.945534 -0.301204 0.123453 192 192 192 255 
0.0566035 -0.212652 -0.0328985 0.953152 -0.284017 0.104099 192 192 192 255 
0.0554285 -0.218692 -0.0364795 0.966096 -0.241907 0.0902164 192 192 192 255 
0.0544125 -0.224731 -0.0402215 0.986628 -0.142734 0.0786896 192 192 192 255 
0.0537715 -0.230932 -0.0443365 0.998715 0.0469939 -0.0189786 192 192 192 255 
0.0552675 -0.237025 -0.0500555 0.868941 0.48722 -0.0869338 192 192 192 255 
0.0599175 -0.243492 -0.0585015 0.777352 0.60015 -0.188534 192 192 192 255 
0.0626975 -0.25012 -0.0656635 0.84361 0.452986 -0.288316 192 192 192 255 
0.0632855 -0.256588 -0.0709545 0.949516 0.196278 -0.244734 192 192 192 255 
0.0623235 -0.263429 -0.0753915 0.94053 -0.14958 -0.305006 192 192 192 255 
0.0591695 -0.270324 -0.0780635 0.846509 -0.432374 -0.310605 192 192 192 255 
0.0541985 -0.276364 -0.0787055 0.77236 -0.538244 -0.337274 192 192 192 255 
0.0492815 -0.282458 -0.0794005 0.775529 -0.580378 -0.248427 192 192 192 255 
0.0446315 -0.288658 -0.0803625 0.731827 -0.660584 -0.167507 192 192 192 255 
0.0392865 -0.294591 -0.0806825 0.601093 -0.774516 -0.19701 192 192 192 255 
0.0331395 -0.298225 -0.0785985 0.441699 -0.894847 -0.064424 192 192 192 255 
0.0257635 -0.301432 -0.0752305 0.486477 -0.87353 0.0168974 192 192 192 255 
0.0186005 -0.305762 -0.0729325 0.539892 -0.837685 0.0824617 192 192 192 255 
0.0115985 -0.310198 -0.0707945 0.627938 -0.761958 0.158475 192 192 192 255 
0.0057725 -0.315062 -0.0699395 0.597151 -0.778696 0.192464 192 192 192 255 
0.00165749 -0.317628 -0.0687105 0.567088 -0.795308 0.214236 192 192 192 255 
0.0589025 -0.451788 -0.212758 0.823554 0.556138 -0.111663 192 192 192 255 
0.0644075 -0.45879 -0.222272 0.869381 0.455056 -0.192613 192 192 192 255 
0.0643005 -0.466861 -0.228258 0.748 0.237331 -0.619814 192 192 192 255 
0.0620555 -0.475253 -0.232748 0.564823 0.0906776 -0.820215 192 192 192 255 
0.109948 -0.0991234 0.00291353 0.928923 -0.285488 -0.235796 192 192 192 255 
0.107596 -0.104789 0.000507534 0.86997 -0.347344 -0.350007 192 192 192 255 
0.104174 -0.10976 -0.000561476 0.781531 -0.450918 -0.431142 192 192 192 255 
0.1007 -0.114677 -0.00157648 0.666904 -0.605389 -0.434446 192 192 192 255 
0.0959965 -0.118793 -0.00104249 0.510628 -0.731738 -0.451463 192 192 192 255 
0.0909725 -0.122695 -0.000133485 0.413049 -0.821634 -0.39282 192 192 192 255 
0.0845045 -0.125742 0.00253952 0.610451 -0.741114 -0.279461 192 192 192 255 
0.0809235 -0.130659 0.00163051 0.915334 -0.39877 -0.0560978 192 192 192 255 
0.0803895 -0.136325 -0.00221747 0.980408 -0.142821 0.135654 192 192 192 255 
0.0807635 -0.142472 -0.00708148 0.979077 -0.141184 0.146543 192 192 192 255 
0.0799085 -0.148939 -0.0113045 0.985473 -0.159214 0.059117 192 192 192 255 
0.0785715 -0.155193 -0.0149395 0.978227 -0.207506 0.00366046 192 192 192 255 
0.0773965 -0.161446 -0.0187345 0.947641 -0.317504 -0.0341856 192 192 192 255 
0.0749905 -0.166952 -0.0210325 0.905062 -0.414293 -0.0960448 192 192 192 255 
0.0721045 -0.17219 -0.0226895 0.895793 -0.433098 -0.0999059 192 192 192 255 
0.0694855 -0.177535 -0.0247205 0.913879 -0.401958 -0.057062 192 192 192 255 
0.0668125 -0.183628 -0.0272325 0.906201 -0.422426 0.0188582 192 192 192 255 
0.0637665 -0.190256 -0.0298515 0.929849 -0.358321 0.0835906 192 192 192 255 
0.0624835 -0.196296 -0.0333795 0.952023 -0.291465 0.0932756 192 192 192 255 
0.0605595 -0.201908 -0.0361055 0.952031 -0.296786 0.074529 192 192 192 255 
0.0594905 -0.208001 -0.0398465 0.956343 -0.288096 0.0490793 192 192 192 255 
0.0575665 -0.213614 -0.0425725 0.95665 -0.283863 0.0651292 192 192 192 255 
0.0561765 -0.219493 -0.0458865 0.967101 -0.248228 0.0556647 192 192 192 255 
0.0549465 -0.225373 -0.0494145 0.98151 -0.19131 0.00618288 192 192 192 255 
0.0539845 -0.231359 -0.0531565 0.999182 0.022503 -0.0336041 192 192 192 255 
0.0543595 -0.23633 -0.0571645 0.934676 0.344095 -0.0893267 192 192 192 255 
0.0566035 -0.241675 -0.0628835 0.820437 0.533439 -0.205731 192 192 192 255 
0.0596505 -0.249425 -0.0710615 0.838923 0.487143 -0.242693 192 192 192 255 
0.0616815 -0.256053 -0.0776365 0.916956 0.215933 -0.335508 192 192 192 255 
0.0602925 -0.261612 -0.0807365 0.905428 -0.0497589 -0.421574 192 192 192 255 
0.0582075 -0.267866 -0.0838895 0.856693 -0.317284 -0.406704 192 192 192 255 
0.0533435 -0.273959 -0.0846385 0.81439 -0.476956 -0.330579 192 192 192 255 
0.0494415 -0.28048 -0.0864555 0.830684 -0.512326 -0.217913 192 192 192 255 
0.0449515 -0.286734 -0.0876845 0.742841 -0.646689 -0.173151 192 192 192 255 
0.0392325 -0.291491 -0.0867765 0.588924 -0.772078 -0.238881 192 192 192 255 
0.0340475 -0.2955 -0.0857075 0.508402 -0.813637 -0.281997 192 192 192 255 
0.0285965 -0.299401 -0.0844245 0.49868 -0.849213 -0.173653 192 192 192 255 
0.0224495 -0.303036 -0.0824465 0.568154 -0.821506 -0.0482635 192 192 192 255 
0.0167305 -0.3079 -0.0816445 0.680584 -0.731926 0.0330294 192 192 192 255 
0.0113855 -0.313886 -0.0820195 0.688996 -0.72037 0.079696 192 192 192 255 
0.0051845 -0.318643 -0.0807895 0.611572 -0.777875 0.144537 192 192 192 255 
-0.000694513 -0.322599 -0.0791865 0.556584 -0.813421 0.168998 192 192 192 255 
-0.00887251 -0.32479 -0.0745895 0 0 0 192 192 192 255 
-0.117003 -0.322866 0.0103425 0.97167 -0.225187 0.071746 192 192 192 255 
-0.118338 -0.330028 0.00595951 0.978844 -0.145799 0.143554 192 192 192 255 
-0.117377 -0.336763 0.000187516 0.993309 -0.0716723 0.0905518 192 192 192 255 
-0.117965 -0.344086 -0.00478348 0.983608 -0.179714 -0.0147439 192 192 192 255 
-0.120584 -0.351836 -0.0084185 0.905696 -0.423912 0.00370109 192 192 192 255 
-0.123898 -0.356219 -0.00905949 0.822836 -0.564839 0.062432 192 192 192 255 
0.0569245 -0.445481 -0.21511 0.967737 -0.0277114 -0.250433 192 192 192 255 
0.0561225 -0.44981 -0.217729 0.945192 0.311035 -0.0993404 192 192 192 255 
0.0609865 -0.454407 -0.224945 0.785369 0.555838 -0.272471 192 192 192 255 
0.0614675 -0.459592 -0.229167 0.712468 0.312977 -0.62804 192 192 192 255 
0.0569245 -0.471137 -0.234298 0.461248 0.0703674 -0.884477 192 192 192 255 
0.0501895 -0.481613 -0.236917 0.323824 0.168304 -0.931027 192 192 192 255 
0.0478915 -0.485943 -0.238414 0.472934 0.0529634 -0.879505 192 192 192 255 
0.107435 -0.100513 -0.00419548 0.824991 -0.395077 -0.404109 192 192 192 255 
0.104014 -0.105484 -0.00526449 0.804652 -0.418279 -0.4214 192 192 192 255 
0.10086 -0.110615 -0.00670749 0.720691 -0.524483 -0.453345 192 192 192 255 
0.0963705 -0.114838 -0.00649348 0.536687 -0.705774 -0.46244 192 192 192 255 
0.0911325 -0.118579 -0.00526449 0.44905 -0.740622 -0.499834 192 192 192 255 
0.0861615 -0.122535 -0.00446248 0.583915 -0.702138 -0.407487 192 192 192 255 
0.0823665 -0.127292 -0.00510448 0.919853 -0.376502 -0.110077 192 192 192 255 
0.0812445 -0.13253 -0.00815049 0.992545 -0.105971 0.060204 192 192 192 255 
0.0816185 -0.138677 -0.0130685 0.99319 -0.0917204 0.0718383 192 192 192 255 
0.0808705 -0.145251 -0.0174515 0.985352 -0.162416 0.0519821 192 192 192 255 
0.0799615 -0.150543 -0.0206585 0.978582 -0.204746 0.0213726 192 192 192 255 
0.0790535 -0.155834 -0.0239725 0.95962 -0.27191 -0.0720723 192 192 192 255 
0.0764335 -0.161179 -0.0260035 0.91704 -0.375443 -0.13446 192 192 192 255 
0.0738145 -0.166524 -0.0280345 0.897006 -0.418249 -0.142995 192 192 192 255 
0.0709825 -0.171762 -0.0297985 0.912493 -0.388303 -0.128756 192 192 192 255 
0.0687375 -0.177321 -0.0322575 0.943907 -0.323982 -0.0638429 192 192 192 255 
0.0667595 -0.182987 -0.0350365 0.93126 -0.363705 -0.0217531 192 192 192 255 
0.0642475 -0.188332 -0.0370675 0.949701 -0.311361 0.0335037 192 192 192 255 
0.0632855 -0.194479 -0.0409695 0.955772 -0.291258 0.0408444 192 192 192 255 
0.0611475 -0.200037 -0.0435355 0.953279 -0.301806 -0.0131012 192 192 192 255 
0.0595975 -0.20581 -0.0466885 0.972237 -0.233845 -0.00852252 192 192 192 255 
0.0584215 -0.211796 -0.0502695 0.969144 -0.246495 -0.000995145 192 192 192 255 
0.0567645 -0.217462 -0.0533165 0.962608 -0.260691 -0.0736666 192 192 192 255 
0.0548935 -0.223021 -0.0560425 0.975215 -0.197471 -0.0998022 192 192 192 255 
0.0537715 -0.228901 -0.0595705 0.993127 -0.0498804 -0.105879 192 192 192 255 
0.0535035 -0.235208 -0.0641135 0.970044 0.226776 -0.0870999 192 192 192 255 
0.0555345 -0.241942 -0.0707415 0.905068 0.40776 -0.120766 192 192 192 255 
0.0585285 -0.250334 -0.0793465 0.862149 0.393164 -0.319563 192 192 192 255 
0.0580475 -0.256802 -0.0838895 0.878709 0.154434 -0.451686 192 192 192 255 
0.0565505 -0.263643 -0.0878985 0.880469 -0.104296 -0.462489 192 192 192 255 
0.0534505 -0.269469 -0.0898765 0.846445 -0.349878 -0.401393 192 192 192 255 
0.0499765 -0.276151 -0.0921745 0.843413 -0.406695 -0.351076 192 192 192 255 
0.0459135 -0.282565 -0.0938855 0.809938 -0.466128 -0.355984 192 192 192 255 
0.0413175 -0.288765 -0.0949005 0.59881 -0.719392 -0.351997 192 192 192 255 
0.0344225 -0.293041 -0.0928165 0.478066 -0.816115 -0.324667 192 192 192 255 
0.0288635 -0.296889 -0.0913725 0.581335 -0.769822 -0.263483 192 192 192 255 
0.0239995 -0.301005 -0.0907845 0.635261 -0.764339 -0.110588 192 192 192 255 
0.0182805 -0.305869 -0.0899835 0.683938 -0.72952 -0.00532179 192 192 192 255 
0.0126675 -0.311748 -0.0900905 0.717074 -0.696973 -0.00579482 192 192 192 255 
0.00684148 -0.317574 -0.0899835 0.670025 -0.741841 -0.0271716 192 192 192 255 
0.0015505 -0.322652 -0.0897155 0.580846 -0.812782 -0.0447574 192 192 192 255 
-0.0049175 -0.326394 -0.0876315 0.48983 -0.870445 0.0489004 192 192 192 255 
-0.0105295 -0.328959 -0.0852795 0.44536 -0.890704 0.0911129 192 192 192 255 
-0.11588 -0.320781 0.00168353 0.971516 -0.198383 0.129618 192 192 192 255 
-0.116361 -0.330296 -0.00505048 0.989137 -0.108109 0.0995972 192 192 192 255 
-0.117377 -0.339115 -0.0108235 0.990975 -0.131607 -0.0254455 192 192 192 255 
-0.118926 -0.346117 -0.0148325 0.969457 -0.244643 -0.0174233 192 192 192 255 
-0.120957 -0.352958 -0.0183065 0.918197 -0.392042 0.0567281 192 192 192 255 
-0.124272 -0.359372 -0.0204975 0.868849 -0.482584 0.11052 192 192 192 255 
0.0567105 -0.448581 -0.22596 0.855661 0.432105 -0.284832 192 192 192 255 
0.0566035 -0.455636 -0.231145 0.639014 0.305701 -0.705838 192 192 192 255 
0.0543055 -0.462906 -0.234833 0.645497 0.189451 -0.739893 192 192 192 255 
0.0524345 -0.468357 -0.237505 0.465281 -0.136255 -0.874613 192 192 192 255 
0.0450585 -0.475947 -0.237505 0.547077 0.0969556 -0.831448 192 192 192 255 
0.0438295 -0.481827 -0.24098 0.671876 0.181984 -0.717958 192 192 192 255 
0.105083 -0.0991234 -0.00943348 0.802393 -0.414652 -0.429219 192 192 192 255 
0.101876 -0.104201 -0.0107705 0.8127 -0.421502 -0.402311 192 192 192 255 
0.0983485 -0.109065 -0.0117325 0.710477 -0.564872 -0.419693 192 192 192 255 
0.0941795 -0.113448 -0.0118385 0.519686 -0.733493 -0.438081 192 192 192 255 
0.0885675 -0.116976 -0.0101825 0.464753 -0.762549 -0.450027 192 192 192 255 
0.0837565 -0.121038 -0.00964749 0.772251 -0.520971 -0.363616 192 192 192 255 
0.0820465 -0.125902 -0.0119455 0.992184 -0.114509 -0.0495747 192 192 192 255 
0.0823135 -0.130766 -0.0157945 0.997258 -0.0271776 0.0688371 192 192 192 255 
0.0820465 -0.136539 -0.0199635 0.995319 -0.0945536 0.0200101 192 192 192 255 
0.0816725 -0.143327 -0.0247735 0.987217 -0.139897 -0.0763681 192 192 192 255 
0.0799085 -0.149206 -0.0278745 0.972933 -0.191979 -0.128627 192 192 192 255 
0.0780375 -0.155032 -0.0308675 0.948836 -0.28373 -0.13859 192 192 192 255 
0.0758995 -0.160645 -0.0334325 0.921341 -0.364792 -0.134382 192 192 192 255 
0.0731205 -0.165883 -0.0353035 0.902476 -0.415426 -0.113836 192 192 192 255 
0.0703945 -0.171121 -0.0371745 0.932269 -0.359185 -0.0431431 192 192 192 255 
0.0686835 -0.176947 -0.0402215 0.953466 -0.301314 -0.0106008 192 192 192 255 
0.0669195 -0.182666 -0.0432145 0.955277 -0.295525 0.0105501 192 192 192 255 
0.0653695 -0.188546 -0.0464215 0.959119 -0.282144 0.0220532 192 192 192 255 
0.0634995 -0.194211 -0.0493075 0.939197 -0.342801 -0.0199028 192 192 192 255 
0.0610935 -0.199556 -0.0514455 0.950168 -0.311563 -0.0104545 192 192 192 255 
0.0599175 -0.205489 -0.0550265 0.970065 -0.235972 -0.057367 192 192 192 255 
0.0580475 -0.211048 -0.0578065 0.946653 -0.271055 -0.17429 192 192 192 255 
0.0559625 -0.2165 -0.0603185 0.949705 -0.222273 -0.220577 192 192 192 255 
0.0543055 -0.222112 -0.0633115 0.968389 -0.145592 -0.202549 192 192 192 255 
0.0527025 -0.227778 -0.0663045 0.987655 -0.0222911 -0.155052 192 192 192 255 
0.0529695 -0.234246 -0.0714365 0.968621 0.217182 -0.120849 192 192 192 255 
0.0539845 -0.239965 -0.0765135 0.916471 0.355447 -0.18368 192 192 192 255 
0.0551605 -0.246753 -0.0825535 0.856007 0.364216 -0.366877 192 192 192 255 
0.0554285 -0.254129 -0.0882725 0.841755 0.272677 -0.465936 192 192 192 255 
0.0547335 -0.259955 -0.0921745 0.857033 0.0842028 -0.508335 192 192 192 255 
0.0527555 -0.265247 -0.0946335 0.853694 -0.161443 -0.495119 192 192 192 255 
0.0499765 -0.27118 -0.0969315 0.820231 -0.303212 -0.48506 192 192 192 255 
0.0456465 -0.277433 -0.0983215 0.756234 -0.371861 -0.538358 192 192 192 255 
0.0415305 -0.284168 -0.100245 0.573425 -0.485872 -0.65963 192 192 192 255 
0.0359185 -0.288604 -0.0992305 0.382829 -0.660725 -0.645666 192 192 192 255 
0.0297715 -0.293148 -0.0979475 0.557212 -0.67234 -0.487313 192 192 192 255 
0.0244805 -0.299134 -0.0983745 0.732185 -0.592197 -0.336465 192 192 192 255 
0.0195625 -0.305227 -0.0991765 0.744955 -0.638199 -0.194279 192 192 192 255 
0.0146455 -0.310412 -0.0992835 0.73314 -0.677011 -0.0645171 192 192 192 255 
0.0101555 -0.314688 -0.0990695 0.666009 -0.745823 0.0134185 192 192 192 255 
0.00448948 -0.318537 -0.0976265 0.618806 -0.784744 0.0354401 192 192 192 255 
-0.000855505 -0.322599 -0.0966115 0.609798 -0.792432 -0.0140651 192 192 192 255 
-0.00678852 -0.327463 -0.0958095 0.57089 -0.820696 -0.0233143 192 192 192 255 
-0.117965 -0.340825 -0.0208725 0.986928 -0.102301 -0.124531 192 192 192 255 
-0.119087 -0.346812 -0.0245605 0.986173 -0.113413 -0.120835 192 192 192 255 
-0.120317 -0.353814 -0.0288365 0.965111 -0.247973 -0.0840809 192 192 192 255 
-0.123577 -0.361243 -0.0318825 0.894925 -0.445632 -0.0228382 192 192 192 255 
-0.127426 -0.367497 -0.0335935 0.892374 -0.450961 0.01739 192 192 192 255 
0.0498695 -0.433936 -0.218477 0.96706 0.18468 0.175182 192 192 192 255 
0.0516865 -0.438693 -0.223394 0.944708 0.322041 -0.0617807 192 192 192 255 
0.0530765 -0.443984 -0.228419 0.8935 0.349361 -0.282144 192 192 192 255 
0.0532365 -0.449757 -0.232802 0.773543 0.177592 -0.608352 192 192 192 255 
0.0505105 -0.455583 -0.235207 0.744642 0.164819 -0.646795 192 192 192 255 
0.0501365 -0.461997 -0.239697 0.685877 -0.0530738 -0.725779 192 192 192 255 
0.0451655 -0.466647 -0.239323 0.358142 -0.365153 -0.859301 192 192 192 255 
0.0415845 -0.470709 -0.239643 0.752159 -0.0339789 -0.658105 192 192 192 255 
0.0418515 -0.475573 -0.243545 0.880117 0.188184 -0.435869 192 192 192 255 
0.102196 -0.0993907 -0.0148325 0.84887 -0.3823 -0.365057 192 192 192 255 
0.0992575 -0.104629 -0.0165425 0.750139 -0.465868 -0.469316 192 192 192 255 
0.0954085 -0.109225 -0.0170775 0.570879 -0.614047 -0.545017 192 192 192 255 
0.0902245 -0.11302 -0.0159545 0.432584 -0.746734 -0.505232 192 192 192 255 
0.0850395 -0.116762 -0.0148855 0.603229 -0.665463 -0.43963 192 192 192 255 
0.0819395 -0.120717 -0.0155275 0.95956 -0.242172 -0.143516 192 192 192 255 
0.0823135 -0.125742 -0.0195895 0.999007 0.0203266 0.0396532 192 192 192 255 
0.0826345 -0.131835 -0.0244535 0.997854 -0.0533331 -0.0379861 192 192 192 255 
0.0815115 -0.138142 -0.0283555 0.986969 -0.117288 -0.110164 192 192 192 255 
0.0798545 -0.144128 -0.0316155 0.978793 -0.162683 -0.124491 192 192 192 255 
0.0786785 -0.150329 -0.0354105 0.965421 -0.226282 -0.129452 192 192 192 255 
0.0766475 -0.156048 -0.0381895 0.937931 -0.293595 -0.184626 192 192 192 255 
0.0741895 -0.161446 -0.0403815 0.927223 -0.332418 -0.172496 192 192 192 255 
0.0720515 -0.167005 -0.0429475 0.944142 -0.307157 -0.119371 192 192 192 255 
0.0701805 -0.172671 -0.0458865 0.9536 -0.282301 -0.104658 192 192 192 255 
