ply
format ascii 1.0
comment VCGLIB generated
element vertex 641
property float x
property float y
property float z
property float nx
property float ny
property float nz
property uchar red
property uchar green
property uchar blue
property uchar alpha
element face 0
property list uchar int vertex_indices
end_header
0.421576 -0.0183295 0.041862 -0.175881 0.216798 -0.960242 255 255 255 255 
0.415138 -0.01425 0.0448315 -0.152226 0.0674432 -0.986042 255 255 255 255 
0.411475 -0.0134175 0.044859 0.0968991 0.0187699 -0.995117 255 255 255 255 
0.407395 -0.013251 0.0440265 0.221775 -0.0610762 -0.973183 255 255 255 255 
0.403344 -0.013168 0.0431665 0.234699 -0.174173 -0.956337 255 255 255 255 
0.399292 -0.013029 0.042306 0.202491 -0.302829 -0.931285 255 255 255 255 
0.395268 -0.0131125 0.0412515 0.26271 -0.317187 -0.91125 255 255 255 255 
0.391328 -0.013584 0.0397805 0.253337 -0.33909 -0.906001 255 255 255 255 
0.387304 -0.0135565 0.038837 0.164074 -0.450493 -0.877574 255 255 255 255 
0.383086 -0.012918 0.038532 0.11495 -0.625646 -0.771591 255 255 255 255 
0.380505 -0.0127515 0.038088 0.202371 -0.706005 -0.678678 255 255 255 255 
0.334328 -0.0185235 0.020577 0.159816 -0.839873 -0.518722 255 255 255 255 
0.330332 -0.0186625 0.019495 0.176236 -0.862197 -0.474928 255 255 255 255 
0.326391 -0.018912 0.018246 0.235792 -0.81234 -0.53339 255 255 255 255 
0.322395 -0.019051 0.017136 0.197702 -0.732609 -0.651305 255 255 255 255 
0.318399 -0.019162 0.016054 0.197046 -0.709823 -0.676258 255 255 255 255 
0.314402 -0.019245 0.0149715 0.198825 -0.680518 -0.70524 255 255 255 255 
0.310379 -0.019273 0.0139725 0.203305 -0.662803 -0.720666 255 255 255 255 
0.306355 -0.019356 0.012918 0.185987 -0.648326 -0.738297 255 255 255 255 
0.302276 -0.0193005 0.0119745 0.184359 -0.629299 -0.75498 255 255 255 255 
0.298252 -0.019356 0.0109475 0.191726 -0.614531 -0.76524 255 255 255 255 
0.294034 -0.019356 0.00992101 0.180472 -0.602036 -0.777807 255 255 255 255 
0.29012 -0.0193285 0.009005 0.186849 -0.583301 -0.790473 255 255 255 255 
0.286208 -0.0193285 0.00806151 0.194083 -0.55494 -0.808934 255 255 255 255 
0.282129 -0.0193285 0.00709049 0.184 -0.528385 -0.828826 255 255 255 255 
0.277328 -0.019245 0.00603548 0.187249 -0.520668 -0.832972 255 255 255 255 
0.226876 -0.0184405 -0.00514801 0.140382 -0.367678 -0.919296 255 255 255 255 
0.222575 -0.0181905 -0.005897 0.149553 -0.377579 -0.913821 255 255 255 255 
0.218829 -0.018024 -0.00661848 0.155612 -0.35804 -0.920648 255 255 255 255 
0.431899 -0.032094 0.0347025 0.158757 0.43406 -0.886785 255 255 255 255 
0.42363 -0.0290135 0.0362285 -0.193928 0.274554 -0.941813 255 255 255 255 
0.418052 -0.0250175 0.0393645 -0.526525 -0.221758 -0.820728 255 255 255 255 
0.414667 -0.020189 0.0439435 -0.0759507 0.15335 -0.985249 255 255 255 255 
0.408783 -0.019023 0.0438325 0.119144 0.130089 -0.984318 255 255 255 255 
0.404898 -0.01869 0.0432495 0.164823 0.1023 -0.981004 255 255 255 255 
0.400818 -0.018385 0.0426115 0.159125 0.0788603 -0.984104 255 255 255 255 
0.396711 -0.018024 0.0420285 0.156878 0.0393356 -0.986834 255 255 255 255 
0.392632 -0.0176635 0.0414735 0.166691 -0.0479512 -0.984843 255 255 255 255 
0.388497 -0.017275 0.0409185 0.152974 -0.145709 -0.977429 255 255 255 255 
0.384418 -0.017025 0.040197 0.167712 -0.144779 -0.975147 255 255 255 255 
0.380394 -0.0170805 0.039198 0.256367 -0.12198 -0.958852 255 255 255 255 
0.376454 -0.017386 0.0378935 0.390029 -0.195102 -0.899896 255 255 255 255 
0.372596 -0.0181075 0.036173 0.482778 -0.0354238 -0.875026 255 255 255 255 
0.369405 -0.0192175 0.034175 0.345644 0.180361 -0.920869 255 255 255 255 
0.326974 -0.0203555 0.0227695 0.239176 -0.863249 -0.444518 255 255 255 255 
0.322866 -0.021521 0.020494 0.320162 -0.839636 -0.438757 255 255 255 255 
0.317927 -0.0217705 0.019023 0.212646 -0.763025 -0.610388 255 255 255 255 
0.312988 -0.0221035 0.017497 0.211725 -0.752149 -0.624055 255 255 255 255 
0.30802 -0.02227 0.0160815 0.208089 -0.737081 -0.642971 255 255 255 255 
0.303025 -0.022409 0.0147495 0.198179 -0.698148 -0.687979 255 255 255 255 
0.298002 -0.022492 0.013445 0.196523 -0.666986 -0.718685 255 255 255 255 
0.293201 -0.02252 0.012252 0.193427 -0.643488 -0.740614 255 255 255 255 
0.287901 -0.022603 0.010892 0.209776 -0.617565 -0.758028 255 255 255 255 
0.282878 -0.022742 0.00956 0.197643 -0.599263 -0.775772 255 255 255 255 
0.277439 -0.022714 0.0082835 0.198851 -0.578832 -0.79083 255 255 255 255 
0.272721 -0.0227695 0.00709049 0.218467 -0.568546 -0.793113 255 255 255 255 
0.268559 -0.0228805 0.00597999 0.192774 -0.596911 -0.778804 255 255 255 255 
0.264284 -0.0227975 0.00506449 0.192073 -0.580115 -0.791565 255 255 255 255 
0.224851 -0.02227 -0.00370501 0.140453 -0.406762 -0.902672 255 255 255 255 
0.433731 -0.0392815 0.033398 0.743068 0.148452 -0.652543 255 255 255 255 
0.431289 -0.0416955 0.030068 0.865348 -0.19525 -0.461574 255 255 255 255 
0.429013 -0.044304 0.026627 0.86818 -0.0695346 -0.491354 255 255 255 255 
0.426266 -0.046552 0.0235185 -0.135859 -0.155917 -0.978382 255 255 255 255 
0.422325 -0.0413905 0.0283195 -0.827953 -0.123243 -0.547088 255 255 255 255 
0.419134 -0.034064 0.035757 1 0 0 255 255 255 255 
0.41672 -0.028736 0.041224 -0.499451 -0.173755 -0.848739 255 255 255 255 
0.41153 -0.026072 0.043 -0.00397647 0.0558444 -0.998432 255 255 255 255 
0.403955 -0.0253225 0.0420285 0.142362 0.132423 -0.980917 255 255 255 255 
0.399153 -0.0249065 0.0413625 0.150771 0.126436 -0.98045 255 255 255 255 
0.391439 -0.0242405 0.04028 0.13488 0.130758 -0.982196 255 255 255 255 
0.386666 -0.023713 0.039753 0.138431 0.119865 -0.983092 255 255 255 255 
0.381532 -0.0232415 0.039059 0.155778 0.0868448 -0.983967 255 255 255 255 
0.376398 -0.0229085 0.0382265 0.409809 0.048859 -0.910862 255 255 255 255 
0.372707 -0.0270985 0.032621 0.704664 -0.213688 -0.676599 255 255 255 255 
0.370376 -0.0279865 0.0310945 0.128079 0.0974946 -0.98696 255 255 255 255 
0.366352 -0.023852 0.0347855 0.0898195 -0.200591 -0.975549 255 255 255 255 
0.36219 -0.0255725 0.0318715 0.0898408 -0.830066 -0.550381 255 255 255 255 
0.356889 -0.024518 0.0317885 0.0235615 -0.911852 -0.409842 255 255 255 255 
0.351838 -0.024407 0.030734 0.1358 -0.83074 -0.539842 255 255 255 255 
0.346871 -0.0245455 0.029374 0.19948 -0.708998 -0.676409 255 255 255 255 
0.342764 -0.0242405 0.028736 -0.0193367 -0.699057 -0.714804 255 255 255 255 
0.337297 -0.0236575 0.0280975 0.00112227 -0.771024 -0.636805 255 255 255 255 
0.327446 -0.0232415 0.0262385 0.0706541 -0.858598 -0.507758 255 255 255 255 
0.322256 -0.023158 0.025073 0.299603 -0.886486 -0.352677 255 255 255 255 
0.317733 -0.024518 0.022492 0.248258 -0.885179 -0.393479 255 255 255 255 
0.312765 -0.024712 0.0211045 0.173252 -0.87398 -0.45403 255 255 255 255 
0.30777 -0.024823 0.0197725 0.200735 -0.852148 -0.48327 255 255 255 255 
0.302886 -0.0252115 0.0181905 0.222106 -0.817701 -0.531068 255 255 255 255 
0.297947 -0.025517 0.016692 0.203273 -0.790161 -0.578208 255 255 255 255 
0.292979 -0.025711 0.015277 0.200988 -0.76198 -0.615622 255 255 255 255 
0.288011 -0.0258775 0.013889 0.210358 -0.731578 -0.648493 255 255 255 255 
0.283017 -0.026072 0.0125015 0.19376 -0.713262 -0.673583 255 255 255 255 
0.277938 -0.0260995 0.0112805 0.198828 -0.693524 -0.692453 255 255 255 255 
0.273387 -0.026294 0.00997648 0.220716 -0.6622 -0.716084 255 255 255 255 
0.268086 -0.026405 0.00861648 0.198321 -0.638426 -0.743694 255 255 255 255 
0.262092 -0.0264605 0.00711799 0.198859 -0.625003 -0.754868 255 255 255 255 
0.254988 -0.0265715 0.00531401 0.193161 -0.65484 -0.730666 255 255 255 255 
0.431872 -0.0372555 0.041196 0.00829879 -0.962661 -0.270582 255 255 255 255 
0.431317 -0.044859 0.0324825 0.900957 -0.194298 -0.387976 255 255 255 255 
0.429707 -0.0486335 0.0278755 0.874735 0.000392766 -0.484602 255 255 255 255 
0.428347 -0.0517135 0.0241015 1 0 0 255 255 255 255 
0.428015 -0.05546 0.0198555 1 0 0 255 255 255 255 
0.426461 -0.051769 0.023602 1 0 0 255 255 255 255 
0.423908 -0.0478285 0.027376 -0.827953 -0.123243 -0.547088 255 255 255 255 
0.420938 -0.0429445 0.032177 1 0 0 255 255 255 255 
0.418274 -0.0358125 0.039642 -0.439611 -0.522193 -0.730792 255 255 255 255 
0.414805 -0.0323715 0.04275 -0.290296 -0.00832111 -0.956901 255 255 255 255 
0.408394 -0.031872 0.0418065 0.117233 0.0531656 -0.99168 255 255 255 255 
0.403788 -0.0312615 0.041418 0.118328 0.040354 -0.992154 255 255 255 255 
0.398432 -0.0308175 0.040641 0.155339 0.0435731 -0.9869 255 255 255 255 
0.392188 -0.030401 0.039642 0.129328 0.0480865 -0.990435 255 255 255 255 
0.387859 -0.029874 0.0392255 0.12304 0.0534543 -0.990961 255 255 255 255 
0.383031 -0.02943 0.0385595 0.119482 0.04254 -0.991925 255 255 255 255 
0.378147 -0.028847 0.0381155 0.144584 0.0406714 -0.988656 255 255 255 255 
0.373623 -0.028625 0.037283 0.544302 -0.175043 -0.820424 255 255 255 255 
0.372319 -0.034536 0.03029 0.819092 0.0280332 -0.572977 255 255 255 255 
0.369849 -0.036284 0.027709 0.587834 0.0700787 -0.80594 255 255 255 255 
0.364576 -0.028375 0.0354515 -0.242152 -0.226669 -0.943389 255 255 255 255 
0.36058 -0.026738 0.0363675 -0.171674 -0.558428 -0.811595 255 255 255 255 
0.356445 -0.0263215 0.035868 0.135712 -0.602705 -0.786339 255 255 255 255 
0.351588 -0.026738 0.0342585 0.254287 -0.608377 -0.751808 255 255 255 255 
0.344873 -0.027598 0.031705 0.109742 -0.655543 -0.747142 255 255 255 255 
0.338823 -0.026516 0.031483 0.0286423 -0.644571 -0.764008 255 255 255 255 
0.335077 -0.0263495 0.0307895 -0.0460678 -0.592975 -0.803902 255 255 255 255 
0.330193 -0.0251285 0.0310115 0.13616 -0.511006 -0.848725 255 255 255 255 
0.325197 -0.0247955 0.0302345 0.175864 -0.470266 -0.864825 255 255 255 255 
0.319898 -0.025295 0.028403 0.0653832 -0.830361 -0.553377 255 255 255 255 
0.315124 -0.025961 0.0265435 0.197982 -0.961873 -0.188691 255 255 255 255 
0.310268 -0.026516 0.0247675 0.207731 -0.929595 -0.304468 255 255 255 255 
0.305439 -0.0270155 0.023047 0.233577 -0.895492 -0.37886 255 255 255 255 
0.300611 -0.0275705 0.0213265 0.222175 -0.880148 -0.419498 255 255 255 255 
0.295699 -0.0278755 0.0198 0.198851 -0.862181 -0.465942 255 255 255 255 
0.290787 -0.0282085 0.018274 0.210342 -0.841353 -0.497876 255 255 255 255 
0.285875 -0.0285415 0.01672 0.209601 -0.819279 -0.533712 255 255 255 255 
0.280908 -0.0287915 0.0153045 0.181285 -0.807516 -0.561296 255 255 255 255 
0.275913 -0.028958 0.0139445 0.21793 -0.781543 -0.584548 255 255 255 255 
0.270779 -0.0293465 0.0123075 0.217893 -0.761277 -0.610721 255 255 255 255 
0.266033 -0.029513 0.011003 0.185656 -0.741621 -0.644617 255 255 255 255 
0.260705 -0.029541 0.00972652 0.182314 -0.731808 -0.656672 255 255 255 255 
0.256348 -0.0296795 0.00856099 0.187623 -0.723717 -0.664102 255 255 255 255 
0.251353 -0.029735 0.00731248 0.182578 -0.7132 -0.676765 255 255 255 255 
0.246524 -0.0298185 0.00611901 0.179473 -0.736247 -0.65248 255 255 255 255 
0.432482 -0.0383935 0.0455805 0.134949 -0.596996 -0.790813 255 255 255 255 
0.426876 -0.038227 0.0444985 0.0879305 -0.582605 -0.807985 255 255 255 255 
0.421937 -0.0378385 0.0438325 0.119757 -0.268776 -0.955729 255 255 255 255 
0.415166 -0.0373945 0.042778 -0.0402254 -0.166238 -0.985265 255 255 255 255 
0.409199 -0.0370055 0.04189 0.110012 -0.0130014 -0.993845 255 255 255 255 
0.405592 -0.0364505 0.0416955 0.0857615 -0.00117389 -0.996315 255 255 255 255 
0.402095 -0.036062 0.0412795 0.141509 0.00525266 -0.989923 255 255 255 255 
0.39563 -0.035618 0.0402525 0.145522 0.00270003 -0.989351 255 255 255 255 
0.391466 -0.035313 0.039642 0.125694 -0.0135113 -0.991977 255 255 255 255 
0.386832 -0.0348135 0.0391145 0.105995 -0.0115555 -0.9943 255 255 255 255 
0.382503 -0.0342585 0.038726 0.111731 -0.0229502 -0.993473 255 255 255 255 
0.378229 -0.0338975 0.0381435 0.193439 -0.0102198 -0.981059 255 255 255 255 
0.373789 -0.0343695 0.0365895 0.554128 -0.217543 -0.803503 255 255 255 255 
0.371431 -0.039531 0.030179 0.905427 -0.395628 -0.153885 255 255 255 255 
0.36996 -0.042112 0.0268765 0.192099 -0.655942 -0.729958 255 255 255 255 
0.367324 -0.039781 0.02893 -0.19613 -0.211143 -0.957576 255 255 255 255 
0.363771 -0.0344525 0.0341475 -0.373125 0.24165 -0.895758 255 255 255 255 
0.359941 -0.031622 0.036506 -0.152371 0.0513488 -0.986989 255 255 255 255 
0.355752 -0.0309285 0.036312 0.0928535 -0.109372 -0.989654 255 255 255 255 
0.353199 -0.0307895 0.0358955 0.220306 -0.226395 -0.948794 255 255 255 255 
0.348675 -0.030651 0.03498 0.242615 -0.459859 -0.854206 255 255 255 255 
0.340488 -0.0300125 0.0337865 0.0367959 -0.57165 -0.819672 255 255 255 255 
0.334272 -0.029652 0.03276 0.178338 -0.501471 -0.846595 255 255 255 255 
0.327112 -0.032094 0.0283475 0.101357 -0.600473 -0.793195 255 255 255 255 
0.32356 -0.0310395 0.028708 -0.237527 -0.527784 -0.81549 255 255 255 255 
0.318787 -0.027404 0.0316495 -0.409198 -0.523762 -0.747148 255 255 255 255 
0.314957 -0.0264325 0.0318715 0.0140282 -0.839092 -0.543809 255 255 255 255 
0.311323 -0.0274315 0.0298735 0.270179 -0.951375 -0.14795 255 255 255 255 
0.307576 -0.028181 0.028153 0.241765 -0.948591 -0.204266 255 255 255 255 
0.303774 -0.028764 0.026627 0.233286 -0.937842 -0.256963 255 255 255 255 
0.300305 -0.0291525 0.0253505 0.218237 -0.931924 -0.289638 255 255 255 255 
0.29531 -0.029735 0.023574 0.210433 -0.915794 -0.342109 255 255 255 255 
0.291175 -0.030096 0.0221865 0.216455 -0.896384 -0.386838 255 255 255 255 
0.28729 -0.0304565 0.0208545 0.21744 -0.88032 -0.421611 255 255 255 255 
0.283378 -0.0307895 0.019578 0.189913 -0.872879 -0.449461 255 255 255 255 
0.279409 -0.030956 0.018468 0.186205 -0.862265 -0.470985 255 255 255 255 
0.274747 -0.031289 0.017025 0.223584 -0.837727 -0.49822 255 255 255 255 
0.269835 -0.031622 0.015471 0.210346 -0.833191 -0.511416 255 255 255 255 
0.265644 -0.031872 0.01425 0.186474 -0.826594 -0.531009 255 255 255 255 
0.261649 -0.0320105 0.01314 0.173041 -0.810397 -0.559744 255 255 255 255 
0.257597 -0.0321215 0.0120855 0.180156 -0.797152 -0.576274 255 255 255 255 
0.253101 -0.0322605 0.0108645 0.178541 -0.787318 -0.59013 255 255 255 255 
0.248828 -0.032399 0.00972652 0.173908 -0.778997 -0.602429 255 255 255 255 
0.243138 -0.0324825 0.0082835 0.187534 -0.771432 -0.608049 255 255 255 255 
0.238754 -0.032649 0.00709049 0.187943 -0.775509 -0.602714 255 255 255 255 
0.430596 -0.0438045 0.0450535 0.172265 0.0168423 -0.984907 255 255 255 255 
0.423269 -0.0433605 0.0439155 0.147333 0.0369152 -0.988398 255 255 255 255 
0.416664 -0.0429165 0.0429445 0.133717 0.0688198 -0.988627 255 255 255 255 
0.410504 -0.0422505 0.042306 0.129056 0.0498973 -0.990381 255 255 255 255 
0.405092 -0.0418065 0.0415845 0.139384 0.0680815 -0.987895 255 255 255 255 
0.396212 -0.041307 0.0401415 0.129943 0.0725609 -0.988863 255 255 255 255 
0.390911 -0.040669 0.039642 0.115719 0.0542455 -0.9918 255 255 255 255 
0.385777 -0.0401415 0.039059 0.111817 0.0473579 -0.9926 255 255 255 255 
0.381171 -0.039642 0.038532 0.116939 0.0429623 -0.992209 255 255 255 255 
0.376121 -0.0390315 0.0380045 0.125995 -0.0151394 -0.991915 255 255 255 255 
0.370986 -0.038338 0.037644 0.649638 -0.351477 -0.674117 255 255 255 255 
0.368156 -0.0421675 0.032649 0.84636 -0.502645 -0.176131 255 255 255 255 
0.367074 -0.0468295 0.0270985 0.692676 0.158298 -0.703663 255 255 255 255 
0.364132 -0.048328 0.0246845 0.22318 0.365555 -0.903637 255 255 255 255 
0.359526 -0.047468 0.0246565 0.0835348 0.41814 -0.904533 255 255 255 255 
0.356529 -0.047135 0.0243235 1 0 0 255 255 255 255 
0.335188 -0.033426 0.035063 0.0167792 -0.446307 -0.894723 255 255 255 255 
0.330359 -0.0325655 0.0349245 0.101309 -0.605566 -0.78932 255 255 255 255 
0.325086 -0.031844 0.034508 -0.0283901 -0.811379 -0.583831 255 255 255 255 
0.320258 -0.0323715 0.0327875 -0.23271 -0.746079 -0.623869 255 255 255 255 
0.315013 -0.0305955 0.0335925 -0.349559 -0.627772 -0.695493 255 255 255 255 
0.310129 -0.028486 0.0348135 -0.0403314 -0.923908 -0.380482 255 255 255 255 
0.305856 -0.0292355 0.032982 0.209508 -0.970681 -0.117837 255 255 255 255 
0.301193 -0.0302345 0.0307895 0.225607 -0.967865 -0.11108 255 255 255 255 
0.296448 -0.030956 0.028847 0.211915 -0.963067 -0.166114 255 255 255 255 
0.291675 -0.03165 0.02696 0.209793 -0.954246 -0.213077 255 255 255 255 
0.286901 -0.032316 0.0251005 0.222378 -0.936793 -0.270123 255 255 255 255 
0.282045 -0.0328155 0.0234355 0.188011 -0.924637 -0.331208 255 255 255 255 
0.277161 -0.033176 0.0218535 0.207796 -0.906556 -0.367392 255 255 255 255 
0.272305 -0.0337035 0.020161 0.219033 -0.889453 -0.401121 255 255 255 255 
0.267421 -0.034064 0.018607 0.194314 -0.876457 -0.440528 255 255 255 255 
0.262453 -0.034314 0.0171915 0.181544 -0.86334 -0.470836 255 255 255 255 
0.257486 -0.0345635 0.0157485 0.180485 -0.848385 -0.497663 255 255 255 255 
0.252519 -0.0347855 0.014333 0.177937 -0.837251 -0.517058 255 255 255 255 
0.247245 -0.03498 0.0129455 0.17406 -0.824332 -0.538683 255 255 255 255 
0.2425 -0.035174 0.0116415 0.187564 -0.810564 -0.554803 255 255 255 255 
0.237227 -0.035396 0.0101705 0.175139 -0.805259 -0.566466 255 255 255 255 
0.231122 -0.035507 0.00864451 0.145896 -0.814927 -0.5609 255 255 255 255 
0.225184 -0.0354795 0.00731248 0.124925 -0.814333 -0.566794 255 255 255 255 
0.220549 -0.0354795 0.0062855 0.125633 -0.814047 -0.567048 255 255 255 255 
0.416137 -0.049882 0.041973 0.130464 0.132388 -0.982574 255 255 255 255 
0.409227 -0.049216 0.0411685 0.141344 0.141271 -0.979829 255 255 255 255 
0.4029 -0.048772 0.0402525 0.145528 0.136912 -0.979835 255 255 255 255 
0.395657 -0.048106 0.0393645 0.120005 0.119034 -0.985611 255 255 255 255 
0.389968 -0.0475235 0.038754 0.114624 0.114193 -0.986824 255 255 255 255 
0.380283 -0.0463855 0.037838 0.115619 0.110052 -0.987178 255 255 255 255 
0.373706 -0.0456915 0.0371165 0.129757 0.112235 -0.985173 255 255 255 255 
0.370626 -0.045525 0.0365895 0.502029 0.100826 -0.858953 255 255 255 255 
0.326558 -0.0375885 0.0357015 -0.113257 -0.219872 -0.968932 255 255 255 255 
0.321229 -0.0354795 0.036867 -0.221508 -0.654615 -0.722781 255 255 255 255 
0.316345 -0.033287 0.0382545 -0.389781 -0.824867 -0.40947 255 255 255 255 
0.311628 -0.031622 0.039059 -0.334382 -0.918389 -0.211542 255 255 255 255 
0.306466 -0.030179 0.039503 -0.0570969 -0.99777 -0.0345751 255 255 255 255 
0.30136 -0.030179 0.03831 0.0982413 -0.990307 0.0981876 255 255 255 255 
0.296281 -0.031428 0.035729 0.196101 -0.977946 0.0718792 255 255 255 255 
0.289732 -0.032732 0.032732 0.204433 -0.978639 -0.0217387 255 255 255 255 
0.2831 -0.0341475 0.029596 0.20144 -0.974417 -0.0996678 255 255 255 255 
0.278798 -0.0346745 0.0280145 0.18384 -0.970134 -0.15825 255 255 255 255 
0.271833 -0.035535 0.025406 0.200621 -0.956192 -0.213186 255 255 255 255 
0.266421 -0.036201 0.0234075 0.199841 -0.944214 -0.261771 255 255 255 255 
0.261565 -0.0366725 0.0217705 0.184729 -0.927809 -0.324108 255 255 255 255 
0.256681 -0.037061 0.0201885 0.16776 -0.917772 -0.359932 255 255 255 255 
0.251714 -0.0373385 0.0187455 0.175501 -0.905032 -0.387449 255 255 255 255 
0.246774 -0.037644 0.017275 0.172307 -0.891018 -0.419998 255 255 255 255 
0.241807 -0.037894 0.015832 0.168189 -0.883222 -0.437757 255 255 255 255 
0.236812 -0.0381435 0.0144165 0.163823 -0.878148 -0.449465 255 255 255 255 
0.231789 -0.03831 0.0130845 0.151718 -0.866009 -0.476456 255 255 255 255 
0.228097 -0.0383935 0.012141 0.136862 -0.845822 -0.51561 255 255 255 255 
0.424212 -0.058124 0.0419175 0.128112 0.0606299 -0.989905 255 255 255 255 
0.419217 -0.0576525 0.041335 0.126358 0.0875081 -0.988117 255 255 255 255 
0.41425 -0.0571805 0.040724 0.141654 0.102192 -0.984627 255 255 255 255 
0.405786 -0.056598 0.039503 0.136374 0.103425 -0.985244 255 255 255 255 
0.397295 -0.055793 0.0384765 0.109616 0.0878289 -0.990086 255 255 255 255 
0.389912 -0.0548775 0.037866 0.102088 0.078369 -0.991684 255 255 255 255 
0.38378 -0.054239 0.0372275 0.110446 0.0865845 -0.990103 255 255 255 255 
0.314847 -0.0294575 0.050215 -0.240494 -0.937553 0.25131 255 255 255 255 
0.306799 -0.025184 0.0532675 1 0 0 255 255 255 255 
0.301499 -0.026155 0.050909 0.193133 -0.941876 0.274898 255 255 255 255 
0.297086 -0.027959 0.0478285 0.223118 -0.946582 0.232813 255 255 255 255 
0.293229 -0.029763 0.044887 0.248896 -0.940572 0.231029 255 255 255 255 
0.288678 -0.0322325 0.040974 0.216065 -0.957284 0.192153 255 255 255 255 
0.283682 -0.0336755 0.038199 0.171233 -0.974636 0.1441 255 255 255 255 
0.27816 -0.03498 0.0354515 0.173184 -0.978529 0.111749 255 255 255 255 
0.271694 -0.0363675 0.0323435 0.187375 -0.982287 -0.00182385 255 255 255 255 
0.265756 -0.0373385 0.0299015 0.193721 -0.978545 -0.0701635 255 255 255 255 
0.259956 -0.038338 0.027404 0.175851 -0.976294 -0.126199 255 255 255 255 
0.254988 -0.038865 0.0256555 0.1495 -0.975018 -0.164283 255 255 255 255 
0.248828 -0.039531 0.023491 0.170484 -0.962306 -0.211903 255 255 255 255 
0.242556 -0.040003 0.0215205 0.142973 -0.953071 -0.26686 255 255 255 255 
0.238254 -0.040225 0.020272 0.146883 -0.944259 -0.294619 255 255 255 255 
0.231261 -0.040641 0.0181905 0.154774 -0.934038 -0.321899 255 255 255 255 
0.227459 -0.0409185 0.017053 0.160711 -0.912293 -0.376688 255 255 255 255 
0.426849 -0.064729 0.042084 0.138006 0.0466115 -0.989334 255 255 255 255 
0.419689 -0.064146 0.041113 0.143367 0.0547385 -0.988155 255 255 255 255 
0.411586 -0.0636465 0.039836 0.140144 0.0575103 -0.98846 255 255 255 255 
0.405675 -0.063147 0.039087 0.119587 0.044088 -0.991844 255 255 255 255 
0.401263 -0.062675 0.038643 0.104613 0.0433976 -0.993566 255 255 255 255 
0.395241 -0.0619815 0.038088 0.0946046 0.0373135 -0.994815 255 255 255 255 
0.388719 -0.0612045 0.037505 0.0875611 0.0410473 -0.995313 255 255 255 255 
0.384196 -0.0606495 0.0371445 0.0899303 0.0336319 -0.99538 255 255 255 255 
0.292951 -0.028403 0.0541 0.271415 -0.95178 0.142996 255 255 255 255 
0.285903 -0.0307065 0.0498545 0.182201 -0.965706 0.184971 255 255 255 255 
0.281407 -0.031733 0.047634 0.140256 -0.972911 0.183774 255 255 255 255 
0.27669 -0.0327875 0.0453865 0.113233 -0.978774 0.170823 255 255 255 255 
0.271888 -0.033537 0.043416 0.21502 -0.949567 0.228229 255 255 255 255 
0.268808 -0.0360065 0.0398085 0.239973 -0.941296 0.237432 255 255 255 255 
0.263757 -0.037644 0.0367835 0.168437 -0.975622 0.140676 255 255 255 255 
0.25904 -0.0387265 0.034425 0.139876 -0.985669 0.0942917 255 255 255 255 
0.254239 -0.0393925 0.0325935 0.102795 -0.99331 0.0526236 255 255 255 255 
0.249355 -0.039864 0.030928 0.169032 -0.985467 0.0167997 255 255 255 255 
0.244776 -0.040891 0.028708 0.172574 -0.983294 -0.0578911 255 255 255 255 
0.239919 -0.0413905 0.027043 0.153001 -0.982355 -0.107562 255 255 255 255 
0.236562 -0.041862 0.025739 0.166241 -0.976081 -0.140106 255 255 255 255 
0.425073 -0.070612 0.0414735 0.144762 0.0750605 -0.986615 255 255 255 255 
0.417386 -0.0700845 0.0403635 0.147076 0.0736802 -0.986377 255 255 255 255 
0.412058 -0.069696 0.0395865 0.125165 0.0581411 -0.990431 255 255 255 255 
0.405592 -0.0690025 0.038948 0.116199 0.0427064 -0.992307 255 255 255 255 
0.401179 -0.0686415 0.038393 0.108703 0.0396025 -0.993285 255 255 255 255 
0.39624 -0.0680865 0.037949 0.0966231 0.0415618 -0.994453 255 255 255 255 
0.389968 -0.067393 0.0373385 0.0871988 0.0372569 -0.995494 255 255 255 255 
0.384584 -0.066699 0.03695 0.0770951 0.034863 -0.996414 255 255 255 255 
0.279187 -0.0308175 0.0555155 0.170119 -0.972201 0.160888 255 255 255 255 
0.273221 -0.0324825 0.052241 0.182698 -0.975198 0.12494 255 255 255 255 
0.265007 -0.034869 0.0476065 0.180424 -0.967713 0.176009 255 255 255 255 
0.258485 -0.036395 0.044332 0.123625 -0.966348 0.225585 255 255 255 255 
0.253962 -0.0376995 0.0418065 0.12536 -0.966797 0.222684 255 255 255 255 
0.249355 -0.038754 0.039503 0.18989 -0.963083 0.190824 255 255 255 255 
0.245165 -0.040558 0.0364505 0.206947 -0.969106 0.134185 255 255 255 255 
0.240475 -0.0414735 0.0343695 0.125095 -0.987654 0.094292 255 255 255 255 
0.235673 -0.042223 0.032399 0.120487 -0.990032 0.0729316 255 255 255 255 
0.230623 -0.0429445 0.0304565 0.0950471 -0.99463 0.0409608 255 255 255 255 
0.225073 -0.043416 0.0286525 0.0997853 -0.991682 0.0813006 255 255 255 255 
0.222131 -0.0438045 0.0275425 0.105524 -0.992116 0.0676096 255 255 255 255 
0.420355 -0.0763285 0.040197 0.132003 0.087941 -0.987341 255 255 255 255 
0.415166 -0.075857 0.0395865 0.124699 0.0811001 -0.988875 255 255 255 255 
0.407479 -0.07508 0.038754 0.106589 0.0762009 -0.991379 255 255 255 255 
0.402372 -0.074525 0.038282 0.106549 0.0694759 -0.991877 255 255 255 255 
0.397766 -0.074053 0.0378105 0.0953574 0.0611132 -0.993565 255 255 255 255 
0.393437 -0.073526 0.0374495 0.0880706 0.0517244 -0.99477 255 255 255 255 
0.387359 -0.0727765 0.036978 0.0783714 0.0447676 -0.995919 255 255 255 255 
0.382892 -0.072194 0.0366725 0.0683744 0.0500997 -0.996401 255 255 255 255 
0.356167 -0.066588 0.0374495 -0.510148 -0.535888 -0.672735 255 255 255 255 
0.261232 -0.034619 0.0542665 0.0846006 -0.992768 0.0851692 255 255 255 255 
0.256598 -0.0348135 0.0530455 0.0930965 -0.982656 0.160377 255 255 255 255 
0.248855 -0.036506 0.0492715 0.16049 -0.952163 0.260055 255 255 255 255 
0.243389 -0.0390595 0.0450255 0.153538 -0.951202 0.267658 255 255 255 255 
0.238976 -0.0399195 0.0430275 0.0800156 -0.967807 0.238636 255 255 255 255 
0.234231 -0.040752 0.040974 0.0962121 -0.972132 0.213781 255 255 255 255 
0.229485 -0.0416125 0.0389205 0.0931348 -0.981774 0.165665 255 255 255 255 
0.224657 -0.0422785 0.037061 0.113227 -0.981994 0.151219 255 255 255 255 
0.220188 -0.043527 0.034647 0.1565 -0.973934 0.164195 255 255 255 255 
0.425211 -0.0823785 0.0403355 0.133985 0.13595 -0.981614 255 255 255 255 
0.418662 -0.081879 0.039503 0.127965 0.111824 -0.985454 255 255 255 255 
0.414528 -0.081546 0.0390035 0.12559 0.108963 -0.98608 255 255 255 255 
0.410725 -0.081213 0.0385595 0.10992 0.0984629 -0.989051 255 255 255 255 
0.404287 -0.0805465 0.0379215 0.105153 0.0936687 -0.990035 255 255 255 255 
0.399153 -0.079964 0.0374495 0.0938982 0.0926879 -0.991258 255 255 255 255 
0.394047 -0.07927 0.0371165 0.0809112 0.0903088 -0.992622 255 255 255 255 
0.388247 -0.0785485 0.0367005 0.0802795 0.0811694 -0.993462 255 255 255 255 
0.383586 -0.077966 0.0363675 0.0664299 0.0698173 -0.995345 255 255 255 255 
0.379284 -0.0773555 0.0361455 0.0474802 0.058563 -0.997154 255 255 255 255 
0.374927 -0.0766895 0.035979 -0.00876241 0.0098665 -0.999913 255 255 255 255 
0.368878 -0.0754405 0.0361455 -0.297149 -0.275305 -0.914281 255 255 255 255 
0.364354 -0.073859 0.0370335 -0.457047 -0.461145 -0.760561 255 255 255 255 
0.361024 -0.0722215 0.0382545 -0.50852 -0.525725 -0.681924 255 255 255 255 
0.237338 -0.0367835 0.053351 0.10373 -0.94211 0.318857 255 255 255 255 
0.231899 -0.038338 0.0502705 0.123484 -0.948419 0.291982 255 255 255 255 
0.226405 -0.040641 0.046302 0.144659 -0.964503 0.220926 255 255 255 255 
0.221743 -0.041668 0.0440545 0.11186 -0.98286 0.146542 255 255 255 255 
0.216942 -0.0424725 0.0420565 0.0946911 -0.97481 0.201939 255 255 255 255 
0.212196 -0.043305 0.0400305 0.0354355 -0.964194 0.262819 255 255 255 255 
0.207618 -0.0436105 0.0386985 0.0339058 -0.961178 0.273837 255 255 255 255 
0.431955 -0.0880115 0.0403635 0.130974 0.130059 -0.982818 255 255 255 255 
0.424796 -0.087512 0.0394755 0.121995 0.123203 -0.984854 255 255 255 255 
0.417302 -0.0869015 0.038643 0.121866 0.097676 -0.987729 255 255 255 255 
0.413195 -0.0865965 0.038171 0.103934 0.0974528 -0.989798 255 255 255 255 
0.408256 -0.085986 0.037866 0.099337 0.0961533 -0.990397 255 255 255 255 
0.403733 -0.0855695 0.0373385 0.103263 0.0866845 -0.99087 255 255 255 255 
0.398682 -0.084959 0.0369225 0.0919264 0.076951 -0.992788 255 255 255 255 
0.394852 -0.084515 0.0365895 0.0801434 0.0732386 -0.994089 255 255 255 255 
0.390884 -0.08396 0.0363395 0.066929 0.0664264 -0.995544 255 255 255 255 
0.386027 -0.083294 0.036062 0.051606 0.0444933 -0.997676 255 255 255 255 
0.38081 -0.0824615 0.0358955 0.0209284 0.0180385 -0.999618 255 255 255 255 
0.376565 -0.0817125 0.035868 -0.113673 -0.0849227 -0.989882 255 255 255 255 
0.37254 -0.080713 0.036201 -0.252774 -0.317829 -0.913833 255 255 255 255 
0.368794 -0.0790205 0.037394 -0.452489 -0.40748 -0.79323 255 255 255 255 
0.366602 -0.0779935 0.0381435 -0.400765 -0.381857 -0.83281 255 255 255 255 
0.21339 -0.0378105 0.05299 1 0 0 255 255 255 255 
0.210004 -0.0389485 0.0508535 1 0 0 255 255 255 255 
0.206924 -0.041113 0.047551 0.10008 -0.953436 0.284506 255 255 255 255 
0.203982 -0.042334 0.045442 0.189598 -0.940989 0.280342 255 255 255 255 
0.42696 -0.0913975 0.0393365 0.113672 0.0415848 -0.992648 255 255 255 255 
0.422825 -0.0910645 0.0388925 0.0921082 0.0244296 -0.995449 255 255 255 255 
0.419106 -0.090648 0.038643 0.107489 0.0316897 -0.993701 255 255 255 255 
0.415832 -0.090454 0.0382265 0.123409 0.0247737 -0.992047 255 255 255 255 
0.413195 -0.0902595 0.0379215 0.0944919 0.0201316 -0.995322 255 255 255 255 
0.409422 -0.089871 0.0375885 0.0855863 0.00881775 -0.996292 255 255 255 255 
0.406452 -0.0895935 0.037311 0.095307 0.00913451 -0.995406 255 255 255 255 
0.403649 -0.089288 0.037089 0.0725523 -0.00515017 -0.997351 255 255 255 255 
0.400818 -0.088955 0.036867 0.0769522 -0.0156099 -0.996913 255 255 255 255 
0.398016 -0.088622 0.036645 0.0671561 -0.0222328 -0.997495 255 255 255 255 
0.395102 -0.0882335 0.0364505 0.0560343 -0.0362863 -0.997769 255 255 255 255 
0.39105 -0.087623 0.0362285 0.0367018 -0.0535449 -0.997891 255 255 255 255 
0.38686 -0.086957 0.03609 0.0238569 -0.0576154 -0.998054 255 255 255 255 
0.381976 -0.0861525 0.035979 -0.0417707 -0.110968 -0.992946 255 255 255 255 
0.378868 -0.085514 0.0360345 -0.170996 -0.245774 -0.954126 255 255 255 255 
0.375815 -0.0845705 0.036506 -0.384402 -0.386241 -0.838482 255 255 255 255 
0.372568 -0.082989 0.037727 -0.388028 -0.462851 -0.796996 255 255 255 255 
0.426211 -0.093673 0.03942 0.09144 0.00261684 -0.995807 255 255 255 255 
0.424157 -0.0934785 0.0392255 0.109975 -0.0122892 -0.993858 255 255 255 255 
0.422104 -0.0933675 0.038948 0.107398 -0.0102196 -0.994164 255 255 255 255 
0.419329 -0.093118 0.038643 0.109453 0.0107253 -0.993934 255 255 255 255 
0.41611 -0.092868 0.03831 0.121882 0.00748656 -0.992516 255 255 255 255 
0.413806 -0.0927295 0.0380045 0.0926574 0.00377338 -0.995691 255 255 255 255 
0.410393 -0.092313 0.037838 0.070961 -0.0103435 -0.997425 255 255 255 255 
0.407479 -0.092008 0.0375885 0.0962716 -0.0172377 -0.995206 255 255 255 255 
0.404815 -0.091786 0.037311 0.0685135 -0.0136793 -0.997556 255 255 255 255 
0.402705 -0.0915085 0.0372275 0.0654047 -0.00623097 -0.997839 255 255 255 255 
0.400125 -0.091203 0.0370335 0.0567929 -0.0234108 -0.998111 255 255 255 255 
0.397655 -0.090898 0.036867 0.0583577 -0.0595719 -0.996517 255 255 255 255 
0.395297 -0.090565 0.036728 0.0438457 -0.05454 -0.997548 255 255 255 255 
0.39316 -0.0902595 0.036645 0.0347204 -0.0567111 -0.997787 255 255 255 255 
0.389968 -0.0897325 0.036534 0.0343595 -0.0607533 -0.997561 255 255 255 255 
0.387249 -0.0893435 0.036395 0.0163049 -0.0754175 -0.997019 255 255 255 255 
0.384362 -0.088844 0.036312 -0.0295985 -0.101618 -0.994383 255 255 255 255 
0.381449 -0.088178 0.036423 -0.1703 -0.212424 -0.962223 255 255 255 255 
0.378924 -0.0874565 0.036756 -0.36983 -0.404605 -0.836373 255 255 255 255 
0.376786 -0.086402 0.0375605 -0.441776 -0.516132 -0.733786 255 255 255 255 
0.37465 -0.085431 0.038282 -0.501678 -0.579879 -0.641918 255 255 255 255 
0.427709 -0.0958375 0.03942 0.101725 0.252283 -0.962292 255 255 255 255 
0.425905 -0.0956155 0.039281 0.106218 0.192464 -0.975539 255 255 255 255 
0.423047 -0.0953655 0.0390035 0.117163 0.186332 -0.975476 255 255 255 255 
0.420411 -0.095116 0.038754 0.128703 0.190569 -0.9732 255 255 255 255 
0.418108 -0.0949495 0.0384765 0.117385 0.18665 -0.975388 255 255 255 255 
0.415693 -0.094755 0.038199 0.129555 0.180389 -0.975026 255 255 255 255 
0.413751 -0.0946165 0.037977 0.107679 0.175911 -0.978499 255 255 255 255 
0.411891 -0.094422 0.037838 0.0806263 0.185304 -0.979368 255 255 255 255 
0.410004 -0.094228 0.037727 0.0867886 0.191244 -0.977698 255 255 255 255 
0.408145 -0.094006 0.0375885 0.112982 0.184945 -0.976233 255 255 255 255 
0.406314 -0.093867 0.0373665 0.115939 0.194248 -0.974077 255 255 255 255 
0.404454 -0.093673 0.0372275 0.0826813 0.180182 -0.980152 255 255 255 255 
0.402456 -0.0935065 0.0370335 0.0909405 0.165188 -0.98206 255 255 255 255 
0.399875 -0.0931735 0.0368945 0.0506025 0.168242 -0.984446 255 255 255 255 
0.39785 -0.0928125 0.0369225 0.0696949 0.158208 -0.984943 255 255 255 255 
0.395851 -0.0925905 0.036756 0.0832892 0.145804 -0.985801 255 255 255 255 
0.393021 -0.0921745 0.036617 0.0676263 0.152844 -0.985934 255 255 255 255 
0.389607 -0.091675 0.0364505 0.0514565 0.155869 -0.986437 255 255 255 255 
0.386971 -0.0911755 0.0364505 0.027192 0.112061 -0.993329 255 255 255 255 
0.384584 -0.090759 0.036395 -0.0600053 0.0376313 -0.997488 255 255 255 255 
0.382614 -0.090232 0.0365895 -0.187589 -0.11397 -0.975613 255 255 255 255 
0.380561 -0.089427 0.037061 -0.367054 -0.317018 -0.874512 255 255 255 255 
0.378424 -0.0884 0.037866 -0.465932 -0.41458 -0.781684 255 255 255 255 
0.376842 -0.0876785 0.0383655 -0.457131 -0.469152 -0.755598 255 255 255 255 
0.429069 -0.097558 0.038976 0.0454637 -0.107985 -0.993112 255 255 255 255 
0.427238 -0.097308 0.038865 -0.00269303 -0.493241 -0.869889 255 255 255 255 
0.425878 -0.0971695 0.038726 0.0358011 -0.462736 -0.885773 255 255 255 255 
0.424268 -0.097003 0.0385875 0.0408983 -0.499591 -0.865295 255 255 255 255 
0.421993 -0.096781 0.0383655 0.0726549 -0.534653 -0.841942 255 255 255 255 
0.419855 -0.0966975 0.0380045 0.043001 -0.54173 -0.839452 255 255 255 255 
0.417331 -0.0963925 0.037866 0.0487142 -0.439529 -0.896906 255 255 255 255 
0.41536 -0.0962535 0.037616 0.0936526 -0.487013 -0.868359 255 255 255 255 
0.413529 -0.096115 0.037422 0.0102409 -0.533399 -0.845802 255 255 255 255 
0.411669 -0.0959205 0.037283 0.0145621 -0.505532 -0.862685 255 255 255 255 
0.40981 -0.0957265 0.037172 0.00891933 -0.513518 -0.858033 255 255 255 255 
0.407951 -0.09556 0.0370055 0.0391867 -0.492903 -0.869202 255 255 255 255 
0.406119 -0.0953935 0.0367835 0.0317608 -0.50284 -0.863796 255 255 255 255 
0.404232 -0.0951435 0.0367005 -0.0456969 -0.557293 -0.829058 255 255 255 255 
0.402817 -0.0949215 0.0367005 -0.050587 -0.592298 -0.804129 255 255 255 255 
0.401402 -0.0947275 0.036645 -0.0211431 -0.615322 -0.787992 255 255 255 255 
0.399542 -0.094561 0.0364785 -0.0281428 -0.57746 -0.815934 255 255 255 255 
0.397655 -0.094339 0.0363395 -0.0406947 -0.50925 -0.859656 255 255 255 255 
0.395768 -0.0940335 0.036312 -0.0290195 -0.543553 -0.838873 255 255 255 255 
0.393881 -0.093756 0.036201 -0.0442982 -0.540049 -0.840467 255 255 255 255 
0.391994 -0.0935065 0.0361175 -0.0405068 -0.456495 -0.888803 255 255 255 255 
0.390107 -0.093229 0.0360065 -0.0372713 -0.490729 -0.870515 255 255 255 255 
0.38822 -0.092868 0.0360345 -0.110533 -0.513381 -0.851013 255 255 255 255 
0.386277 -0.092452 0.03609 -0.152864 -0.529457 -0.834451 255 255 255 255 
0.384307 -0.0919245 0.036284 -0.285661 -0.55807 -0.779074 255 255 255 255 
0.382281 -0.0911755 0.036728 -0.417527 -0.519918 -0.745223 255 255 255 255 
0.3807 -0.0903705 0.037311 -0.497057 -0.601374 -0.625527 255 255 255 255 
0.37909 -0.0895655 0.037949 -0.490776 -0.672743 -0.553676 255 255 255 255 
0.42782 -0.097308 0.038421 -0.0942639 -0.889755 -0.446598 255 255 255 255 
0.425988 -0.0970585 0.03831 0.0122833 -0.557628 -0.83 255 255 255 255 
0.423935 -0.096892 0.038088 0.04172 -0.608084 -0.792776 255 255 255 255 
0.421687 -0.096753 0.0377825 0.066111 -0.65519 -0.752566 255 255 255 255 
0.419634 -0.0966145 0.037533 -0.0125883 -0.627528 -0.778492 255 255 255 255 
0.417774 -0.096309 0.0374775 -0.0198047 -0.578208 -0.815649 255 255 255 255 
0.415915 -0.0961705 0.037283 0.0739783 -0.577061 -0.813343 255 255 255 255 
0.414083 -0.096115 0.036978 0.0285684 -0.634874 -0.772087 255 255 255 255 
0.412252 -0.095893 0.0368945 -0.00702869 -0.608734 -0.793343 255 255 255 255 
0.410393 -0.0957265 0.036728 -0.00142969 -0.635054 -0.772466 255 255 255 255 
0.408534 -0.095532 0.0365895 0.0102008 -0.627051 -0.778912 255 255 255 255 
0.406674 -0.095338 0.036395 0.0252861 -0.601388 -0.798557 255 255 255 255 
0.404815 -0.0951715 0.0362565 -0.0331197 -0.654796 -0.75508 255 255 255 255 
0.402956 -0.0949495 0.0361455 -0.0577249 -0.692479 -0.719125 255 255 255 255 
0.401069 -0.0947275 0.0360345 -0.0423222 -0.702797 -0.710131 255 255 255 255 
0.399181 -0.0944775 0.035979 -0.0529977 -0.657034 -0.751995 255 255 255 255 
0.397295 -0.0942 0.0358955 -0.0565033 -0.627972 -0.776182 255 255 255 255 
0.395407 -0.0939505 0.0358125 -0.0704454 -0.677688 -0.731967 255 255 255 255 
0.39352 -0.093645 0.035757 -0.069492 -0.651004 -0.755886 255 255 255 255 
0.391605 -0.093312 0.035729 -0.0508193 -0.588952 -0.806569 255 255 255 255 
0.389719 -0.0930625 0.0355905 -0.09 -0.622727 -0.777246 255 255 255 255 
0.387803 -0.0927015 0.035618 -0.146136 -0.641448 -0.753119 255 255 255 255 
0.385861 -0.0922575 0.0357015 -0.2216 -0.626381 -0.747356 255 255 255 255 
0.383891 -0.0917025 0.0359235 -0.320861 -0.642615 -0.695769 255 255 255 255 
0.381837 -0.0908425 0.036506 -0.452374 -0.644457 -0.616468 255 255 255 255 
0.379701 -0.08976 0.037311 -0.499115 -0.715024 -0.489516 255 255 255 255 
0.378147 -0.0891495 0.0376995 -0.443851 -0.584164 -0.679521 255 255 255 255 
0.425878 -0.0942835 0.038643 0.126774 0.119931 -0.984655 255 255 255 255 
0.422798 -0.0940615 0.0382265 0.133017 0.113581 -0.984584 255 255 255 255 
0.416081 -0.0936175 0.0374775 0.119199 0.090668 -0.988722 255 255 255 255 
0.412807 -0.0933675 0.0371165 0.100773 0.0866344 -0.99113 255 255 255 255 
0.40845 -0.0929515 0.036728 0.104393 0.0770045 -0.991551 255 255 255 255 
0.405398 -0.0927295 0.0363675 0.091543 0.0697339 -0.993356 255 255 255 255 
0.402206 -0.092341 0.036201 0.0538102 0.0670892 -0.996295 255 255 255 255 
0.398987 -0.091869 0.03609 0.0679832 0.0503904 -0.996413 255 255 255 255 
0.396018 -0.091536 0.03584 0.059713 0.0356635 -0.997578 255 255 255 255 
0.39241 -0.090981 0.0356735 0.0496843 0.0309491 -0.998285 255 255 255 255 
0.389441 -0.090565 0.035535 0.0319531 0.022261 -0.999241 255 255 255 255 
0.386555 -0.0900375 0.035507 -0.0204852 -0.0126683 -0.99971 255 255 255 255 
0.383641 -0.0894825 0.035535 -0.105771 -0.119805 -0.987147 255 255 255 255 
0.380672 -0.08865 0.035868 -0.322217 -0.280887 -0.904035 255 255 255 255 
0.378063 -0.087512 0.0366725 -0.404703 -0.367161 -0.837501 255 255 255 255 
0.37587 -0.086402 0.0375605 -0.456374 -0.422657 -0.782997 255 255 255 255 
0.43301 -0.0902595 0.0400305 0.118966 0.128637 -0.98453 255 255 255 255 
0.426988 -0.089788 0.0393645 0.13207 0.122699 -0.983617 255 255 255 255 
0.421687 -0.08951 0.038615 0.136643 0.108931 -0.984613 255 255 255 255 
0.415859 -0.0891495 0.037866 0.124126 0.0959673 -0.987615 255 255 255 255 
0.411058 -0.088733 0.0373665 0.100853 0.0895041 -0.990867 255 255 255 255 
0.406646 -0.0882615 0.0370055 0.0991582 0.0941163 -0.990611 255 255 255 255 
0.402734 -0.087845 0.036645 0.0891374 0.0875575 -0.992163 255 255 255 255 
0.398404 -0.087401 0.0362565 0.0794693 0.0655338 -0.994681 255 255 255 255 
0.393076 -0.0865685 0.03609 0.0530563 0.0629968 -0.996602 255 255 255 255 
0.387221 -0.085764 0.035757 0.0445641 0.0504378 -0.997732 255 255 255 255 
0.381005 -0.0848205 0.0355625 -0.0521741 -0.0447338 -0.997636 255 255 255 255 
0.377231 -0.0840155 0.0357015 -0.194503 -0.221261 -0.955621 255 255 255 255 
0.373068 -0.082545 0.0365895 -0.445602 -0.330142 -0.832133 255 255 255 255 
0.37032 -0.081074 0.037755 -0.36765 -0.381011 -0.84833 255 255 255 255 
0.199959 -0.038782 0.0522685 1 0 0 255 255 255 255 
0.19624 -0.039781 0.0502705 1 0 0 255 255 255 255 
0.193215 -0.040974 0.048189 1 0 0 255 255 255 255 
0.418052 -0.0836825 0.038726 0.132001 0.0743661 -0.988456 255 255 255 255 
0.410365 -0.0831 0.0377825 0.104423 0.0619454 -0.992602 255 255 255 255 
0.406092 -0.082656 0.037422 0.0888813 0.0615677 -0.994138 255 255 255 255 
0.401484 -0.082101 0.037061 0.103012 0.062727 -0.9927 255 255 255 255 
0.396518 -0.08174 0.0364505 0.0792121 0.0582436 -0.995155 255 255 255 255 
0.391439 -0.080991 0.0362565 0.055015 0.0495306 -0.997256 255 255 255 255 
0.385972 -0.080269 0.035951 0.064144 0.0305203 -0.997474 255 255 255 255 
0.380311 -0.0795475 0.0355905 0.0333392 0.00729924 -0.999417 255 255 255 255 
0.375149 -0.078715 0.0354795 -0.107501 -0.0373687 -0.993502 255 255 255 255 
0.369405 -0.0773555 0.0358955 -0.361653 -0.391825 -0.845979 255 255 255 255 
0.365492 -0.0754685 0.037283 -0.454989 -0.337506 -0.82406 255 255 255 255 
0.224407 -0.036978 0.0531565 0.0996263 -0.925349 0.365792 255 255 255 255 
0.220771 -0.0384765 0.0506035 0.128061 -0.927657 0.35079 255 255 255 255 
0.216387 -0.04053 0.0472455 0.167308 -0.942804 0.288322 255 255 255 255 
0.212418 -0.0421675 0.0444705 0.156113 -0.971577 0.177952 255 255 255 255 
0.207646 -0.043111 0.042306 0.120431 -0.987889 0.0978352 255 255 255 255 
0.202761 -0.04386 0.040391 0.0923394 -0.993652 0.0642651 255 255 255 255 
0.197655 -0.044304 0.038837 0.0733262 -0.99571 0.0564272 255 255 255 255 
0.420521 -0.0780215 0.039281 0.138137 0.0696926 -0.987958 255 255 255 255 
0.412863 -0.077522 0.0382545 0.124722 0.0498534 -0.990938 255 255 255 255 
0.407534 -0.0769945 0.037755 0.0880179 0.0335761 -0.995553 255 255 255 255 
0.401069 -0.0762455 0.0372555 0.0847557 0.042216 -0.995507 255 255 255 255 
0.39191 -0.0751355 0.0365895 0.0833457 0.0309429 -0.99604 255 255 255 255 
0.385361 -0.074497 0.035979 0.0754765 0.00751029 -0.997119 255 255 255 255 
0.381837 -0.0740255 0.0357845 0.0425695 0.0234511 -0.998818 255 255 255 255 
0.366962 -0.0717775 0.035313 -0.438307 -0.281092 -0.853741 255 255 255 255 
0.250215 -0.035868 0.0529345 0.0743099 -0.992808 0.0938598 255 255 255 255 
0.245997 -0.035979 0.0519355 0.0928111 -0.976876 0.192614 255 255 255 255 
0.241473 -0.0370335 0.049771 0.119504 -0.967044 0.224823 255 255 255 255 
0.233814 -0.0393925 0.0453585 0.126816 -0.973343 0.191103 255 255 255 255 
0.22918 -0.0403915 0.043222 0.107364 -0.963376 0.245722 255 255 255 255 
0.224407 -0.041335 0.041085 0.0885082 -0.971326 0.220662 255 255 255 255 
0.219522 -0.042084 0.03917 0.0972972 -0.981241 0.166434 255 255 255 255 
0.214611 -0.0428055 0.037311 0.0958311 -0.988554 0.116519 255 255 255 255 
0.209671 -0.043444 0.035535 0.0945606 -0.991416 0.0902966 255 255 255 255 
0.20462 -0.044082 0.0337035 0.0831546 -0.993633 0.0760148 255 255 255 255 
0.198848 -0.044637 0.0318995 0.0735936 -0.994787 0.0705897 255 255 255 255 
0.428874 -0.0719715 0.040974 0.134566 0.0790648 -0.987745 255 255 255 255 
0.423131 -0.0715555 0.0402245 0.137939 0.0790776 -0.987279 255 255 255 255 
0.414805 -0.071056 0.039059 0.150149 0.0773705 -0.985631 255 255 255 255 
0.408062 -0.0707505 0.037977 0.118499 0.0525508 -0.991563 255 255 255 255 
0.402872 -0.07014 0.0375885 0.0782766 0.0343618 -0.996339 255 255 255 255 
0.396462 -0.069363 0.0371445 0.0919471 0.0234268 -0.995488 255 255 255 255 
0.389912 -0.068836 0.036395 0.0988042 0.0195917 -0.994914 255 255 255 255 
0.384529 -0.068253 0.0359235 0.0816587 0.0236433 -0.99638 255 255 255 255 
0.27064 -0.0316775 0.054572 0.160954 -0.971183 0.175779 255 255 255 255 
0.267338 -0.032538 0.052879 0.16742 -0.972054 0.164568 255 255 255 255 
0.26212 -0.03387 0.0502705 0.183958 -0.966806 0.17733 255 255 255 255 
0.253767 -0.036284 0.0457195 0.166071 -0.96399 0.207711 255 255 255 255 
0.247384 -0.0383935 0.0419455 0.100613 -0.970892 0.21736 255 255 255 255 
0.24239 -0.0389205 0.04028 0.0755277 -0.982907 0.1679 255 255 255 255 
0.237422 -0.039531 0.038532 0.1323 -0.980547 0.144998 255 255 255 255 
0.232954 -0.0410295 0.0358125 0.184984 -0.970709 0.153315 255 255 255 255 
0.228375 -0.0422505 0.033426 0.132718 -0.986789 0.092912 255 255 255 255 
0.223408 -0.0428055 0.0317605 0.0982041 -0.992563 0.0719302 255 255 255 255 
0.218912 -0.0433885 0.0301235 0.0863962 -0.990985 0.102395 255 255 255 255 
0.211697 -0.0441375 0.0277925 0.0647795 -0.991832 0.109877 255 255 255 255 
0.207978 -0.0444705 0.0266545 0.0690044 -0.992809 0.097817 255 255 255 255 
0.421632 -0.0643125 0.04053 0.135058 0.0649081 -0.988709 255 255 255 255 
0.41561 -0.0638685 0.039753 0.1456 0.0703806 -0.986837 255 255 255 255 
0.408505 -0.0635635 0.0385875 0.143801 0.0906204 -0.985449 255 255 255 255 
0.403788 -0.0632855 0.037949 0.112418 0.0894215 -0.989629 255 255 255 255 
0.398404 -0.062703 0.0374775 0.100184 0.0748632 -0.992149 255 255 255 255 
0.38686 -0.0615375 0.036423 0.0934672 0.0621217 -0.993682 255 255 255 255 
0.381893 -0.0609545 0.03609 0.0763566 0.0506139 -0.995795 255 255 255 255 
0.290148 -0.028264 0.0544055 0.220172 -0.959957 0.173223 255 255 255 255 
0.284016 -0.0299015 0.0511585 0.178971 -0.960017 0.215262 255 255 255 255 
0.277022 -0.032066 0.047218 0.146386 -0.967462 0.206369 255 255 255 255 
0.271222 -0.0332595 0.044665 0.13528 -0.972047 0.191897 255 255 255 255 
0.265534 -0.034647 0.0419175 0.193104 -0.960425 0.200737 255 255 255 255 
0.260733 -0.0367005 0.0385595 0.225966 -0.952837 0.202584 255 255 255 255 
0.256376 -0.0384765 0.0355905 0.217248 -0.966021 0.140021 255 255 255 255 
0.251353 -0.0399195 0.032871 0.148111 -0.988023 0.043284 255 255 255 255 
0.245275 -0.040336 0.0310945 0.0837602 -0.996005 0.030955 255 255 255 255 
0.239365 -0.0410295 0.029041 0.121025 -0.992626 0.00686952 255 255 255 255 
0.233398 -0.041668 0.027071 0.131873 -0.98964 -0.0567614 255 255 255 255 
0.227903 -0.0422505 0.025267 0.124181 -0.986465 -0.107081 255 255 255 255 
0.421659 -0.0567645 0.0409185 0.128591 0.0933127 -0.987298 255 255 255 255 
0.415444 -0.0561815 0.0402525 0.120811 0.0990945 -0.987717 255 255 255 255 
0.40376 -0.0551825 0.0390035 0.124683 0.0996919 -0.987176 255 255 255 255 
0.391939 -0.0541835 0.0376995 0.114472 0.085383 -0.98975 255 255 255 255 
0.383031 -0.053573 0.0365615 0.11063 0.0757073 -0.990974 255 255 255 255 
0.379035 -0.053129 0.036201 0.0924355 0.0756562 -0.99284 255 255 255 255 
0.31543 -0.029291 0.050132 -0.293338 -0.926772 0.234621 255 255 255 255 
0.307104 -0.024962 0.0532955 1 0 0 255 255 255 255 
0.301193 -0.0259055 0.0508255 0.199077 -0.950324 0.239276 255 255 255 255 
0.295727 -0.027959 0.047218 0.220287 -0.949004 0.225533 255 255 255 255 
0.290842 -0.030096 0.043749 0.235277 -0.946212 0.222096 255 255 255 255 
0.286735 -0.032094 0.040613 0.222489 -0.955767 0.192377 255 255 255 255 
0.280186 -0.03387 0.0372 0.171213 -0.977225 0.125367 255 255 255 255 
0.272693 -0.035729 0.033509 0.167375 -0.98266 0.0797862 255 255 255 255 
0.267171 -0.0367835 0.031178 0.166264 -0.98582 0.0226937 255 255 255 255 
0.262925 -0.0373945 0.0295685 0.165114 -0.984688 -0.0559147 255 255 255 255 
0.256404 -0.038199 0.027265 0.179942 -0.973413 -0.141734 255 255 255 255 
0.246053 -0.0393925 0.023713 0.156831 -0.966949 -0.201033 255 255 255 255 
0.240142 -0.0399475 0.021826 0.147579 -0.96091 -0.234248 255 255 255 255 
0.233287 -0.040419 0.0198555 0.138823 -0.952238 -0.271977 255 255 255 255 
0.226876 -0.04078 0.0181075 0.131893 -0.945497 -0.297724 255 255 255 255 
0.218634 -0.0412515 0.015832 0.136745 -0.909199 -0.393267 255 255 255 255 
0.213557 -0.041446 0.014583 0.137264 -0.888735 -0.437388 255 255 255 255 
0.421854 -0.048467 0.042223 0.168341 0.149221 -0.974369 255 255 255 255 
0.41622 -0.0482725 0.0412795 0.125794 0.116077 -0.985242 255 255 255 255 
0.411613 -0.0478565 0.0408075 0.12518 0.0921354 -0.987847 255 255 255 255 
0.405953 -0.047579 0.039947 0.157651 0.0875356 -0.983608 255 255 255 255 
0.401402 -0.0474125 0.03917 0.142851 0.0820628 -0.986336 255 255 255 255 
0.393492 -0.046663 0.0383655 0.104034 0.0653098 -0.992427 255 255 255 255 
0.386555 -0.045886 0.037755 0.111305 0.0701585 -0.991307 255 255 255 255 
0.380172 -0.045331 0.0370055 0.0984059 0.0735831 -0.992422 255 255 255 255 
0.373789 -0.0444705 0.036617 0.178837 0.0912722 -0.979636 255 255 255 255 
0.360247 -0.042889 0.035535 -0.110853 -0.951527 0.286893 255 255 255 255 
0.328362 -0.037533 0.0347855 -0.144984 -0.166937 -0.97525 255 255 255 255 
0.322506 -0.0354515 0.0359235 -0.194529 -0.549462 -0.812558 255 255 255 255 
0.316401 -0.03276 0.037644 -0.363272 -0.889996 -0.275574 255 255 255 255 
