ply
format ascii 1.0
comment VCGLIB generated
element vertex 813
property float x
property float y
property float z
property float nx
property float ny
property float nz
element face 0
property list uchar int vertex_indices
end_header
0.136501 0.375692 -0.0497154 0.0305791 0.999419 0.01507 
0.102956 0.31528 0.100114 0.252559 -0.0407612 0.966722 
-0.111233 0.139332 -0.0266633 -0.957254 0.176641 0.229046 
0.138273 0.0763896 0.012739 0.038341 0.247424 0.968148 
0.204544 -0.215349 0.0956106 0.86009 0.121857 0.495375 
-0.0443548 0.202526 -0.0731974 -0.302097 0.250592 -0.919751 
0.203355 -0.184518 0.0883492 0.511714 0.44274 0.736295 
0.146822 0.374017 -0.0308298 0.0320078 0.999418 0.0118348 
-0.0266881 0.381103 -0.0301762 -0.00118177 0.999921 0.0125323 
-0.0515841 0.37657 0.0346876 -0.0483105 0.99358 0.102295 
0.104803 0.344426 -0.143626 0.204215 0.0721251 -0.976265 
0.0384951 -0.12488 -0.22135 -0.756203 0.277626 -0.59252 
0.1343 -0.060886 0.13116 0.839765 -0.0627167 0.539316 
0.0809054 0.378045 -0.100626 0.0220944 0.999669 -0.0131788 
-0.00425023 0.184841 -0.138272 -0.99274 -0.114441 0.0370242 
0.00463092 0.0319946 -0.218996 -0.229118 0.388577 -0.892476 
0.179743 -0.0056823 0.0154337 0.450414 0.0497259 0.891434 
0.128848 -0.148669 0.102934 0.989194 -0.0651063 0.13136 
0.175657 0.0716116 0.00785827 0.455246 0.0392608 0.8895 
0.124105 0.364339 0.0953999 0.374592 0.25604 0.891137 
0.150222 0.150224 0.0829459 0.899525 0.0582358 0.43297 
-0.207317 -0.117298 -0.0677143 -0.533301 0.450196 -0.71618 
0.18001 0.361756 -0.0185989 0.952708 0.283273 0.11002 
0.16082 0.296276 0.0497575 0.871771 0.0980833 0.479994 
-0.047417 0.24537 -0.0630378 -0.379992 0.0122444 -0.924909 
0.0122962 0.16625 -0.18142 -0.510236 0.141159 -0.848371 
0.128699 0.368025 0.1948 0.95725 0.263971 -0.11829 
0.203328 -0.132916 0.0491843 0.206816 0.483786 0.850399 
-0.158055 -0.0601208 0.00477703 0.0531867 -0.355551 0.933142 
-0.0874071 0.258694 0.00462728 -0.981529 0.178495 0.0688549 
-0.0340929 -0.00541661 -0.220871 -0.460371 0.436574 -0.772956 
-0.00383486 0.0327292 -0.147804 -0.782876 0.214308 0.584103 
-0.0262971 -0.313552 -0.0460429 -0.557331 -0.106594 -0.82342 
0.179981 0.245525 -0.0597733 0.930717 0.308092 -0.197093 
0.0963429 -0.189628 0.139398 0.281655 0.196792 0.939119 
0.148245 0.256031 0.0729873 0.717918 0.184518 0.671228 
0.00670097 0.237494 0.092626 -0.0804347 0.0800241 0.993542 
-0.0804374 0.240944 -0.0454053 -0.749145 0.325162 -0.577105 
0.139682 -0.0395168 0.112945 0.989836 -0.0630169 0.127488 
0.134057 -0.307418 0.17923 0.473365 0.358605 0.804567 
-0.118218 -0.081081 -0.228229 -0.365452 0.744661 -0.558503 
0.131017 0.0991392 0.00663918 0.0149682 0.240356 0.970569 
-0.0379037 0.0138096 -0.202313 -0.750197 0.570314 -0.334585 
0.111506 0.0929596 0.133234 0.137999 0.32038 0.937183 
-0.0130755 0.253461 -0.114118 -0.992175 0.00739139 -0.124639 
-0.00280806 0.134299 -0.151763 -0.999228 -0.035656 0.0165171 
-0.0430686 0.290711 -0.0661177 -0.603793 0.0790171 -0.793215 
0.19443 0.19514 -0.0633966 0.960891 0.173529 -0.215814 
-0.0499662 0.321397 -0.0473857 -0.847365 0.254641 -0.465972 
-0.0640365 -0.0354212 -0.226986 -0.457921 0.545123 -0.702246 
-0.223767 -0.264762 -0.0895724 -0.750842 0.265997 -0.60455 
0.0798989 0.371159 0.0748509 -0.0522594 0.998325 0.0248398 
0.115961 0.212522 0.100493 0.258647 0.262601 0.929593 
-0.0640547 0.121636 0.0806785 -0.786037 0.401956 -0.469657 
-0.0370496 0.376914 0.0403188 0.0169586 0.994916 0.099271 
0.0744194 0.0375919 -0.0143603 0.857694 -0.233685 0.457987 
0.211289 -0.183153 0.0728439 0.855642 0.052134 0.514936 
0.100827 0.22787 0.102341 0.266283 0.0969194 0.95901 
0.0138397 0.0892427 -0.200386 -0.645669 0.248656 -0.721999 
0.202493 -0.0196957 -0.0166503 0.972052 0.234438 0.0124178 
0.0728556 0.286544 -0.15365 0.0137966 0.200766 -0.979542 
-0.223187 -0.24507 -0.0880864 -0.728038 0.394463 -0.560678 
-0.214245 -0.102025 -0.0464499 -0.82399 0.48254 -0.296979 
-0.0683994 -0.0904311 -0.164801 -0.2095 0.235117 -0.949121 
0.119507 -0.11353 0.135132 0.604174 -0.180913 0.776044 
0.090371 0.1423 0.124573 0.259657 0.286058 0.922361 
0.177494 0.328294 -0.0407202 0.992668 -0.116721 -0.0314119 
0.0707436 0.400393 0.0309243 -0.188689 -0.156 0.969567 
0.15673 0.222535 0.0756662 0.803492 0.10682 0.585654 
-0.031659 0.35292 -0.0721757 -0.82287 0.237643 -0.51615 
0.00132232 0.177119 -0.173593 -0.723679 0.376162 -0.578612 
0.15565 0.35293 0.0696294 0.806948 -0.188957 0.559581 
-0.0729539 0.286609 -0.0307013 -0.880187 0.213863 -0.423715 
-0.034768 0.367096 -0.0587412 -0.66121 0.447966 -0.60177 
0.0927179 0.481204 0.0542436 0.567513 0.305856 0.764448 
-0.0642964 0.30522 -0.0333869 -0.773144 0.301054 -0.558225 
0.141613 0.246374 0.0807526 0.627604 0.182451 0.756852 
0.0260086 0.23442 -0.164071 -0.245735 0.268018 -0.931547 
-0.0369242 -0.228871 -0.0523307 -0.569007 0.0804383 -0.818389 
0.17327 0.0368364 0.014266 0.46193 0.188053 0.866751 
0.137367 0.0411215 0.0187392 -0.0269012 0.174721 0.98425 
0.104958 0.126261 0.123302 0.197299 0.29726 0.934189 
0.17934 0.258088 -0.0387597 0.929589 0.33755 -0.148069 
-0.0276469 0.242852 0.0916054 -0.175082 0.311339 0.934031 
0.104188 0.247312 0.103584 0.285486 0.0488651 0.957136 
0.187913 0.0687078 -0.00209801 0.803624 -0.0308942 0.594335 
-0.0960865 0.208971 -0.0445397 -0.819733 0.395463 -0.414303 
-0.0432493 0.0123717 -0.189733 -0.827045 0.555979 -0.0829692 
-0.0879479 -0.0569992 -0.155823 -0.34672 0.0530792 -0.936466 
-0.030492 0.355603 0.071183 -0.307043 0.224608 0.924811 
-0.112166 0.152306 -0.0501537 -0.901108 0.183914 -0.392657 
-0.124375 0.0407222 -0.0571801 -0.666072 -0.025475 -0.745453 
0.0303757 0.237542 -0.163952 -0.210891 0.266678 -0.94043 
-0.0759173 -0.0492845 -0.196944 -0.64093 0.610381 0.465451 
-0.0569493 0.377371 0.0112952 -0.0848183 0.995629 0.039099 
-0.00257246 0.379547 -0.0910814 -0.176446 0.97614 -0.126564 
0.103243 0.419382 0.109895 0.774375 0.628108 0.0763074 
0.122344 -0.183799 0.123838 0.860418 0.0464385 0.507469 
-0.022422 0.372417 0.0568963 0.00161276 0.980357 0.197226 
0.0453451 0.219781 0.112353 -0.1112 0.126841 0.98567 
-0.0789439 0.246757 -0.042868 -0.781072 0.312865 -0.54041 
0.100731 0.375095 -0.124409 0.0331954 0.985478 -0.166527 
-0.104402 0.026365 -0.120224 -0.557702 0.413482 -0.719723 
0.143917 0.238829 0.0838447 0.597451 0.194209 0.778033 
0.182562 -0.049469 0.0237353 0.147876 0.278525 0.948977 
0.0150316 0.180037 -0.180086 -0.582422 0.366415 -0.72562 
-0.079902 0.0722548 -0.0930466 0.164141 0.3198 -0.933159 
0.155103 0.170249 0.0762389 0.892886 0.0240432 0.449641 
0.0964586 0.271406 -0.15472 0.0760331 0.191187 -0.978604 
0.121945 -0.260801 0.157846 0.564561 0.479476 0.671844 
0.0574681 0.375149 -0.00462409 0.0191189 0.998405 0.053121 
0.107847 0.167044 0.114655 0.181669 0.181308 0.966501 
-0.00619894 0.26804 -0.13485 -0.801269 0.190244 -0.567253 
0.00599057 0.242663 -0.152569 -0.562562 0.222032 -0.796383 
0.0031875 0.359596 -0.123 -0.625776 0.201351 -0.753566 
0.0695553 -0.024799 -0.0041504 0.930213 -0.00407042 0.366997 
-0.0152483 0.305097 -0.104115 -0.93539 0.00286405 -0.353606 
0.105693 -0.047581 0.154565 0.582715 -0.190171 0.790113 
-0.00321726 0.188958 -0.128913 -0.984113 -0.150376 0.0943828 
0.202319 0.1362 -0.0234677 0.973178 0.0051007 0.229997 
0.13175 0.201292 0.098208 0.526031 0.268393 0.807005 
0.0629164 0.466146 0.057409 -0.385353 -0.367293 0.846521 
0.17029 0.235749 0.0431596 0.93568 -0.0321097 0.351385 
-0.095983 -0.0671124 -0.199748 -0.652603 0.716416 0.246693 
-0.0720623 0.370888 0.0288084 -0.767993 0.603552 0.214272 
-0.00585922 0.2168 0.0957196 0.247943 0.115012 0.961923 
0.171022 -0.0862876 0.0250596 -0.180052 0.227639 0.956954 
-0.0924189 -0.0633487 -0.226323 -0.42352 0.518623 -0.742739 
0.0657447 -0.0221014 -0.214503 -0.182815 0.229228 -0.956051 
-0.0711521 0.274959 -0.0430059 -0.83489 0.262668 -0.483698 
0.148861 0.139789 0.09753 0.891268 0.101986 0.44186 
0.0863413 0.223728 0.107157 0.225358 0.119971 0.966861 
0.196788 0.174709 -0.0152071 0.936035 0.100613 0.337216 
0.109518 0.179203 0.110939 0.108985 0.166521 0.979996 
-0.104629 -0.039665 -0.146963 -0.624786 0.059098 -0.778556 
0.0969622 0.0965217 0.133789 0.0708005 0.241114 0.967911 
0.170053 0.33566 -0.0867336 0.964435 -0.0174314 -0.263744 
0.158401 0.375262 -0.0552994 0.0462563 0.998857 0.012046 
0.148392 0.0401821 0.0206018 0.156129 0.230338 0.960504 
0.128997 0.336247 0.27223 0.28431 0.111223 0.952259 
-0.0857711 -0.0375585 -0.149747 -0.362044 0.133292 -0.922582 
-0.0434484 0.378338 -0.0271646 -0.0760784 0.996687 -0.0287726 
-0.123641 0.0735147 -0.0155286 -0.837139 0.397185 0.376089 
-0.204999 -0.0872145 -0.0463275 -0.787461 0.53657 -0.303312 
0.13201 0.375433 -0.107316 0.0321224 0.999133 -0.026485 
0.00407976 0.139107 -0.177321 -0.794094 0.0962282 -0.600129 
0.0166639 0.228175 0.0950088 -0.0777684 -0.0414644 0.996109 
-0.0167523 -0.0105541 -0.0550029 -0.87674 -0.03803 -0.479458 
0.126747 -0.103932 -0.0139289 -0.516929 0.0592446 0.853976 
0.0454601 0.0738132 -0.0946716 -0.900368 0.15025 0.408366 
0.0883035 0.409512 0.106637 -0.877442 0.327345 0.350629 
0.189031 0.238804 -0.0156805 0.949688 0.294226 0.107353 
0.0073661 0.375762 0.0112038 0.0400024 0.997191 0.063316 
0.130896 0.367765 0.234797 0.387172 0.816423 0.428429 
-0.0644591 0.378002 -0.00255113 -0.33241 0.942728 -0.0277187 
0.170534 0.349722 -0.0854761 0.926135 0.270953 -0.26241 
0.176829 0.225475 0.0233024 0.810786 -0.253717 0.527497 
-0.0391366 -0.364487 -0.0430361 -0.660036 0.208321 -0.721772 
0.0874097 0.493807 0.025429 0.0220601 0.7228 -0.690705 
0.0317442 0.376924 -0.0239987 0.0231718 0.99874 0.0445236 
0.0843486 0.131865 0.127867 0.266841 0.269636 0.925252 
0.199996 0.173515 -0.0269693 0.976808 0.119115 0.177924 
0.0393348 0.0908202 -0.209677 -0.26148 0.173833 -0.949426 
0.111308 -0.188858 0.132765 0.529396 0.156628 0.833791 
0.00919313 0.222471 -0.159842 -0.56642 0.256768 -0.783096 
0.173309 0.280084 -0.033966 0.991032 0.0663286 -0.116002 
-0.0270778 0.375499 0.0268871 0.0308171 0.996619 0.0761578 
0.131746 0.1943 0.101978 0.580836 0.278765 0.764801 
0.0797312 0.403169 0.0303928 0.13249 -0.122507 0.983585 
0.117297 0.271088 0.094756 0.435299 0.0625385 0.898111 
0.0824158 0.188061 0.114949 0.228901 0.160471 0.960132 
-0.10203 0.195696 -0.0520416 -0.792199 0.367139 -0.487473 
0.0188029 -0.175316 -0.218556 -0.865814 0.398221 -0.302963 
-0.0857284 0.222138 0.0248063 -0.953351 0.158233 0.25707 
0.169829 0.331606 0.016545 0.978234 -0.0128001 0.207108 
0.112811 0.253791 0.0974623 0.370566 0.0592458 0.926915 
0.0832477 0.376048 -0.0082434 0.110864 0.993816 -0.00629462 
0.0658673 0.163193 0.124633 0.228906 0.25505 0.939442 
-0.0531704 0.277438 -0.0643424 -0.577833 0.0803998 -0.812185 
-0.0629106 0.133962 0.0865742 -0.916986 0.294824 -0.268729 
0.0601829 0.375447 -0.0908555 0.029365 0.999478 -0.0134365 
0.0262487 0.370444 -0.130866 -0.297933 0.598949 -0.743301 
0.138921 0.365926 0.0914034 0.473539 0.231483 0.849809 
-0.117347 0.114415 -0.0298207 -0.926835 0.326348 0.185674 
0.139783 -0.154496 -0.0168736 -0.209531 -0.167644 0.963323 
-0.0178337 0.162695 0.0957863 0.537792 -0.23807 0.808766 
0.118932 0.38543 0.19752 0.411768 0.8428 0.346607 
-0.120315 0.0334018 0.0429174 -0.146706 -0.375161 0.915277 
0.0692352 -0.0704312 -0.00438657 0.885684 -0.193836 0.421891 
0.0933491 0.0404557 -0.191684 0.318773 0.162235 -0.933843 
0.115505 -0.215821 0.141143 0.541762 0.270395 0.795852 
0.126975 0.327269 0.09018 0.555133 -0.0780214 0.828094 
0.176397 0.240344 -0.0817627 0.945489 0.233348 -0.227156 
0.180098 0.237258 0.0232551 0.901908 0.00251943 0.43192 
0.129394 -0.104744 0.125556 0.837387 -0.175739 0.51759 
0.200686 -0.0160967 -0.0170889 0.966776 0.244574 0.0743491 
-0.112296 -0.0735935 -0.222481 -0.460776 0.762244 -0.454609 
-0.0933072 0.216715 -0.0375647 -0.897874 0.370573 -0.237692 
0.154097 -0.34295 -0.0489754 -0.820721 0.184571 -0.540694 
-0.00489218 0.161663 -0.0670728 0.0299744 -0.0845783 -0.995966 
0.0313489 0.0975698 -0.207816 -0.377574 0.184009 -0.907512 
0.116559 -0.0640809 0.145579 0.521459 -0.138388 0.841979 
0.000757788 -0.223299 -0.224605 -0.773546 0.401123 -0.49064 
0.00198512 0.0484847 -0.210694 -0.429914 0.498946 -0.752481 
-0.0557477 0.359364 0.0606311 -0.339845 0.655785 0.674131 
-0.0367544 -0.162777 -0.0431645 -0.694572 0.122394 -0.708935 
-0.0259673 0.255252 -0.0751443 -0.697115 0.00840123 -0.71691 
-0.0474819 -0.226967 -0.0356207 -0.960264 0.02786 -0.277699 
0.00705141 0.375301 -0.00350618 0.0371042 0.997544 0.0594082 
-0.00662174 0.0696228 -0.1798 -0.86721 0.409154 -0.283794 
0.179375 0.225736 0.0221346 0.816102 -0.229501 0.530384 
-0.060587 0.0919302 0.0955986 0.371684 -0.518252 0.770238 
0.140322 0.265436 0.0809979 0.681528 0.108125 0.72376 
0.156099 0.374115 0.0587891 0.848199 0.412925 0.331738 
0.104714 0.226073 0.105479 0.272834 0.0998482 0.956866 
0.163028 0.247224 0.0561829 0.851903 0.164534 0.497183 
0.195544 0.192908 -0.0206008 0.965273 0.0894387 0.245456 
0.12331 -0.217107 0.130659 0.924738 0.150532 0.349571 
0.0674067 0.417361 -0.0338158 0.974251 0.213507 -0.0724529 
0.100124 0.146003 0.120388 0.175977 0.26808 0.947188 
0.0365939 0.328321 -0.145622 -0.189522 0.167833 -0.967426 
0.116055 0.37649 -0.12643 0.0487011 0.987655 -0.148885 
0.000191447 -0.227952 -0.232107 -0.713083 0.411719 -0.56745 
-0.105181 -0.0193718 -0.140539 -0.685252 0.201857 -0.699774 
0.0847634 0.369735 -0.141952 0.0235572 0.562859 -0.826217 
-0.00413615 0.1646 0.0774996 0.763455 -0.419771 0.490846 
-0.0941684 0.0681372 -0.0947229 -0.135457 0.474791 -0.869612 
0.00948387 0.173791 -0.182558 -0.572801 0.237303 -0.784593 
-0.0608097 0.251398 -0.0579862 -0.524176 0.0822306 -0.847631 
-0.0707257 0.214331 -0.0611166 -0.284024 0.205741 -0.936483 
0.0838856 0.374754 -0.09093 0.0259872 0.999639 -0.00681743 
0.153053 0.171013 0.0858898 0.861232 0.0587454 0.504806 
-0.0609882 0.378777 -0.00762467 -0.300372 0.952799 -0.0441615 
0.080091 0.39303 0.026618 0.297016 -0.0809764 0.951433 
0.0333067 0.37413 0.046952 0.0132954 0.998734 0.0485217 
0.0574544 0.248744 -0.161126 -0.0129841 0.338857 -0.940748 
-0.106117 -0.0113104 -0.136525 -0.77914 0.231934 -0.582364 
-0.0835259 0.232058 0.021964 -0.948832 0.171645 0.265057 
-0.0531455 0.17027 -0.0808768 0.000985884 0.154141 -0.988048 
0.173334 0.260144 -0.0729773 0.959812 0.234916 -0.153543 
0.125845 -0.119508 0.130943 0.785665 -0.171373 0.594443 
-0.123476 0.0908689 -0.0273806 -0.933205 0.323757 0.155918 
0.0620246 0.297195 0.10144 -0.109448 0.120727 0.986634 
0.147495 -0.0416245 0.0126958 -0.404694 -0.157629 0.900764 
0.138224 0.369508 0.0895288 0.465359 0.301557 0.832168 
-0.206581 -0.0930047 -0.0268364 -0.874878 0.443588 0.194467 
0.129285 0.134709 0.117233 0.46116 0.113485 0.88003 
-0.0525678 0.37699 0.0210049 -0.0166948 0.99789 0.0627395 
-0.0373753 0.37575 -0.0462083 -0.328368 0.813149 -0.480586 
-0.089766 0.230252 -0.0362684 -0.87558 0.36908 -0.311672 
0.150146 0.264433 0.0690666 0.754945 0.12138 0.644457 
0.0292977 0.0834881 -0.211756 -0.284007 0.220556 -0.933111 
0.0242596 0.318507 -0.144744 -0.318901 0.189101 -0.928732 
0.134747 0.019677 0.016782 -0.157052 0.0480423 0.986421 
0.0121732 0.247804 -0.155669 -0.48323 0.242939 -0.841112 
-0.165697 -0.0129746 -0.0404112 -0.933493 0.292677 -0.207197 
0.0633764 0.371118 0.0910021 -0.192027 0.941522 0.27688 
0.135852 0.376583 -0.0827165 0.0304637 0.999463 0.0120937 
-0.0797783 0.308706 -0.00544298 -0.959877 0.0616925 -0.273551 
0.0749329 0.375315 -0.0196199 0.0309481 0.999376 0.0170416 
-0.0289153 0.00637479 -0.218794 -0.492414 0.424184 -0.759998 
-0.0687942 -0.0324331 -0.205112 -0.743195 0.663679 -0.0848007 
0.0848483 0.325118 -0.146808 0.0382757 0.0839984 -0.995731 
-0.0120952 0.374824 0.0417773 0.0172305 0.995458 0.0936337 
-0.00644347 0.37231 0.0523581 0.0101356 0.99066 0.135974 
-0.0842699 0.0939702 0.0733863 -0.658483 0.743982 -0.11354 
-0.0807064 0.152779 -0.0710975 -0.624397 0.205481 -0.753596 
0.151234 0.021554 0.0236442 0.0622112 0.120092 0.990812 
0.191023 -0.00679942 0.00873773 0.673297 0.178527 0.717495 
-0.0458641 0.147823 0.103707 0.0173529 -0.00675651 0.999827 
0.0792259 0.268262 -0.156932 0.0426129 0.209694 -0.976838 
-0.10269 0.121727 0.000362194 -0.874896 0.351108 -0.333588 
0.150324 0.369743 0.0796837 0.742173 0.140626 0.655289 
-0.0920337 0.143065 -0.063085 -0.517818 0.116548 -0.847515 
-0.205631 -0.134835 -0.0287691 0.139291 -0.401358 0.905268 
0.103779 0.412289 0.149769 0.324666 0.910832 0.254907 
-0.0153711 0.237412 -0.0880683 -0.79535 -0.13522 -0.590875 
0.064089 0.121929 0.135036 0.157373 0.204981 0.966031 
0.186512 -0.0340002 0.0174722 0.319582 0.255864 0.91236 
0.0691434 0.396518 -0.0211938 -0.971651 -0.219791 0.0871037 
-0.0443423 0.238652 0.068229 -0.999892 -0.0114324 0.00918758 
0.00765654 0.255322 -0.152613 -0.522922 0.244266 -0.816631 
0.0559722 0.0494519 -0.203526 0.200328 0.143991 -0.96909 
0.0585426 0.377945 -0.0333249 0.0377733 0.998956 0.0256945 
-0.0126492 0.0456797 -0.202435 -0.599622 0.592003 -0.538503 
0.0429479 0.365868 -0.137458 -0.206932 0.429039 -0.879264 
-0.00142032 0.371281 0.0629613 -0.0114174 0.963584 0.267162 
0.14493 0.161311 0.0997902 0.759566 0.131768 0.636943 
0.0499703 0.247712 0.108769 -0.0285615 0.126128 0.991603 
0.128073 0.0795551 0.0105186 -0.0970842 0.213708 0.972061 
-0.00646947 0.301067 -0.120307 -0.873312 0.06679 -0.48256 
0.0967803 0.2576 0.103946 0.217848 0.0635009 0.973915 
-0.077232 0.1684 -0.0695503 -0.596687 0.30373 -0.742774 
-0.0868969 0.0415512 -0.111194 0.169077 0.639629 -0.749858 
0.124908 -0.172085 0.119323 0.850078 0.0134939 0.526483 
0.118661 0.329562 0.0960043 0.407813 -0.0725978 0.910175 
-0.110174 0.163764 -0.0416181 -0.983557 0.180271 -0.0108962 
-0.086317 0.258653 0.00565681 -0.981529 0.178495 0.0688549 
0.103757 0.376815 -0.0985397 0.0154543 0.999853 -0.00743303 
0.136634 0.1186 0.000134471 -0.172093 0.14618 0.974174 
0.0894614 0.37754 -0.0305644 0.0237213 0.999335 0.0276957 
0.0566485 0.219681 -0.175553 -0.0551103 0.404998 -0.912655 
-0.081624 0.319883 0.00398599 -0.993257 0.0461828 -0.106335 
0.137003 0.0861874 0.00941209 0.0280662 0.25236 0.967226 
0.0861683 0.402734 0.0291702 0.407873 -0.108582 0.906559 
0.00617823 0.188835 -0.165809 -0.692983 0.312606 -0.649656 
0.127926 0.326848 0.0867982 0.564615 -0.0804793 0.821421 
-0.0471668 0.171999 -0.0768071 -0.00501699 0.150894 -0.988537 
-0.0858068 0.0328362 -0.119691 0.121716 0.645736 -0.753797 
0.121511 -0.276189 0.168535 0.531556 0.429471 0.73007 
0.132784 0.335096 0.272598 0.408411 0.18596 0.893655 
0.0583452 0.157679 -0.19795 0.0110002 0.278802 -0.960286 
0.00194105 0.37884 -0.105942 -0.3616 0.86437 -0.349443 
-0.104513 0.0474814 0.0519511 -0.0467287 -0.495665 0.867256 
-0.112854 0.106584 -0.00713153 -0.665593 0.746131 -0.0165745 
-0.131291 -0.107301 -0.253299 -0.433944 0.593857 -0.677515 
0.196392 0.195671 -0.0266423 0.978272 0.0947101 0.184427 
0.0295176 0.257826 0.106499 -0.175658 0.0903018 0.980301 
-0.061306 0.372269 0.0455827 -0.266195 0.925403 0.26976 
0.130198 0.376681 -0.0851934 0.0231789 0.999704 0.00745068 
0.0965435 0.433012 0.0932718 0.599988 0.762396 0.242419 
0.119699 -0.00685198 0.155763 0.727977 -0.0943581 0.679078 
0.141796 0.279527 0.0779508 0.716277 0.0601513 0.695219 
0.00894146 0.37238 -0.124488 -0.452622 0.571332 -0.684626 
0.141245 0.170669 0.100295 0.726112 0.142109 0.672731 
0.178856 0.345516 -0.0318102 0.993672 -0.0948587 0.0601498 
-0.191495 -0.0705563 -0.0499473 -0.677841 0.553877 -0.483479 
0.00247512 0.172116 -0.172104 -0.715203 0.350131 -0.60489 
0.121328 -0.220598 0.13758 0.804854 0.238326 0.543517 
0.132349 0.351207 0.254751 0.431291 0.793463 0.429423 
-0.0548094 0.144224 -0.0822007 0.045703 0.0721213 -0.996348 
0.124206 -0.0732366 0.141791 0.575635 -0.119997 0.808854 
-0.0100516 0.0312556 -0.217684 -0.399037 0.487158 -0.776818 
0.17563 -0.0223284 0.0180059 0.289369 0.119337 0.94975 
0.051235 0.233285 -0.168346 -0.0846686 0.358178 -0.929806 
-0.0789942 0.143324 -0.0817244 -0.508301 0.145036 -0.848878 
0.0287657 0.283555 0.100527 -0.0364272 0.246505 0.968457 
0.185107 0.212838 -0.0701833 0.917982 0.259868 -0.29963 
0.0559579 0.299955 0.0989405 -0.139003 0.136902 0.980783 
-0.0307704 0.379023 0.019792 0.0264846 0.997181 0.070204 
-0.103199 -0.0166816 -0.143043 -0.627156 0.22544 -0.745555 
-0.105437 0.125133 -0.0616175 -0.511681 0.0379167 -0.858339 
0.114498 0.0947581 0.134043 0.173215 0.327832 0.928721 
-0.0152645 0.256721 -0.103531 -0.990533 -0.0600365 -0.123454 
-0.21927 -0.280552 -0.0837106 0.833698 -0.359538 0.419143 
-0.109147 -0.0189772 -0.129747 -0.887732 0.181545 -0.423053 
0.0850946 0.376346 -0.115217 0.014382 0.999304 -0.0344047 
0.104704 0.41399 0.105178 0.911249 0.408731 -0.0506317 
0.088182 0.0643631 -0.187921 0.309612 0.153623 -0.938371 
0.0813213 0.244956 -0.161336 0.199239 0.226423 -0.953434 
0.141895 0.343707 0.249058 0.848989 0.515616 0.115577 
0.131517 0.238065 0.0898786 0.499966 0.117483 0.858039 
0.136149 -0.292814 0.164002 0.637904 0.415265 0.648563 
0.154015 0.232198 0.0792355 0.681877 0.2075 0.701418 
-0.0936584 0.22456 -0.0205826 -0.961681 0.274001 -0.00961681 
0.00425693 0.173946 -0.177188 -0.692322 0.330429 -0.641488 
0.0937161 0.229564 0.10791 0.250224 0.0915845 0.963846 
0.0662907 0.191971 0.115961 0.143201 0.19686 0.969917 
0.0151098 -0.189611 -0.221616 -0.799426 0.413241 -0.436062 
-0.0149438 -0.0863047 0.0442293 -0.298079 0.0269691 0.95416 
-0.168146 -0.0921978 -0.0109434 -0.137399 -0.309478 0.940928 
-0.0582085 0.31621 -0.041989 -0.779914 0.359398 -0.512414 
-0.0617578 0.144254 0.0883468 -0.956956 0.25622 -0.136331 
0.0945302 0.270256 0.102666 0.216956 0.0837512 0.972582 
0.0895309 0.450183 0.0550361 0.867732 0.332232 0.369679 
0.131198 -0.138903 0.103076 0.987393 -0.0766606 0.138486 
-0.00840605 0.163913 0.0830458 0.763963 -0.416069 0.493202 
0.169933 0.245024 0.0430116 0.925892 0.0637913 0.372364 
-0.106442 0.181785 -0.0308211 -0.97266 0.208951 0.101354 
0.0126243 0.203286 0.0869908 0.425172 -0.300012 0.853945 
-0.108747 0.114622 -0.059195 -0.671566 0.0580229 -0.73867 
0.212256 -0.0613764 0.00650203 0.860186 0.344901 0.375665 
-0.0552671 0.321798 -0.0414442 -0.730301 0.462094 -0.50312 
-0.049168 0.176427 -0.0769268 -0.0199973 0.159192 -0.987045 
0.0623026 0.377731 -0.0781464 0.0309808 0.999512 -0.00410801 
0.096294 0.445297 0.0322093 0.90367 -0.271885 0.330846 
-0.0968968 0.018018 -0.135653 -0.328211 0.50274 -0.799706 
0.0660317 -0.0878511 -0.22614 -0.250765 0.202476 -0.946636 
0.0665492 0.409126 0.00548197 -0.954346 -0.293695 0.0544759 
-0.0195511 -0.00784389 -0.0411232 -0.910505 -0.0642572 -0.408476 
-0.0603959 0.378686 -0.00571234 -0.246187 0.969054 -0.0180585 
-0.0920744 0.0870131 -0.0879356 -0.317686 0.417288 -0.851438 
0.0563761 0.187465 -0.189652 -0.0519239 0.347429 -0.936267 
0.172126 0.147478 0.00839937 0.10087 0.128316 0.98659 
0.0247987 0.211517 0.0936379 0.134278 -0.167149 0.976745 
0.137899 0.33601 0.0849949 0.654365 -0.125687 0.74566 
0.165171 0.336796 0.0370845 0.958986 -0.0275911 0.282107 
-0.0192817 -0.00938843 -0.0488561 -0.907563 -0.0576622 -0.415939 
0.0560059 0.214295 -0.177731 -0.0892215 0.414537 -0.905648 
-0.0129049 0.163672 -0.0702614 0.219634 -0.0439899 -0.97459 
-0.114642 0.0673674 -0.0643761 -0.767414 0.257175 -0.587313 
-0.0962221 0.196667 -0.00164336 -0.976368 0.0908225 0.196103 
-0.00917663 0.354439 -0.110343 -0.778157 0.0827267 -0.622598 
-0.040684 0.325344 -0.0660252 -0.771456 0.116942 -0.625445 
0.0828606 0.370478 -0.142325 0.0157134 0.573081 -0.819348 
0.00223208 0.379894 -0.0955097 -0.0887016 0.991645 -0.0936559 
-0.0321507 0.0229555 -0.203024 -0.716333 0.567512 -0.405952 
0.0717896 -0.0765213 -0.0177406 0.922522 -0.275742 0.270036 
0.167044 0.316058 0.0353929 0.945871 0.00585823 0.32449 
-0.173767 -0.0420166 -0.0459954 -0.794699 0.395944 -0.460089 
-0.216389 -0.194793 -0.0716124 -0.661597 0.105339 -0.742424 
0.0775719 0.423768 0.0323936 0.167 -0.249326 0.953912 
0.0635094 0.415642 -0.000227296 -0.956238 -0.287873 0.0523314 
0.00370395 0.0940108 -0.144326 -0.950626 0.0162199 0.309915 
0.0480031 0.207526 -0.179885 -0.248242 0.382077 -0.890165 
0.144087 0.182934 0.0925922 0.726634 0.131818 0.67426 
0.118302 0.396055 0.168659 0.882877 0.468916 -0.0254055 
0.126964 -0.182813 0.115244 0.935501 -0.00701891 0.353254 
0.145114 0.335664 0.0745209 0.74005 -0.142776 0.657222 
-0.0535151 -0.449213 -0.0594843 -0.768993 0.191726 -0.609829 
0.0427803 -0.0969961 -0.212099 -0.772038 0.167562 -0.613091 
-0.0170666 0.333139 -0.101974 -0.851316 0.0412639 -0.523028 
0.113548 -0.20818 0.137291 0.57318 0.238592 0.783925 
0.0632726 0.159032 0.125594 0.208356 0.259613 0.942968 
0.134966 0.188491 0.098403 0.71035 0.210726 0.671564 
0.16666 -0.210866 -0.116522 0.851717 0.146103 0.503221 
0.164393 0.276426 0.0494532 0.88428 0.0749314 0.460905 
0.00520461 0.0581495 -0.139511 -0.82976 0.144124 0.539191 
0.11598 -0.273551 0.172372 0.352542 0.447748 0.821727 
0.177045 0.133959 0.00707877 0.199412 0.12265 0.97221 
0.0799548 0.352983 0.105983 -0.0497266 -0.0146783 0.998655 
-0.0317939 0.320829 -0.0758907 -0.773044 0.0608693 -0.631425 
0.0794401 0.361723 0.102464 -0.0969649 0.219954 0.970679 
0.0530109 0.334984 0.096848 -0.28274 -0.0067291 0.959173 
-0.0377306 -0.266464 -0.0553068 -0.621982 -0.100306 -0.776581 
-0.215243 -0.210322 -0.074768 -0.619891 0.240036 -0.747073 
0.135255 -0.0136813 0.0106866 -0.442621 -0.145403 0.884842 
-0.0767257 -0.0404327 -0.202684 -0.713432 0.650795 0.259769 
-0.102299 0.125491 -0.0611688 -0.49147 0.0437678 -0.869794 
0.139338 0.13596 0.110347 0.674848 0.195299 0.711645 
0.140063 0.375145 -0.0587757 0.0308941 0.999411 0.0149724 
-0.112497 0.024294 0.0417466 0.047209 -0.470736 0.88101 
0.0963911 0.248079 0.106017 0.23402 0.0547934 0.970687 
0.0255121 0.377078 -0.118589 -0.0584741 0.976227 -0.208716 
0.0221402 0.212416 -0.169458 -0.283868 0.319443 -0.904088 
0.0668874 0.324431 0.100527 -0.155063 -0.0251819 0.987584 
0.0913501 0.129585 0.12703 0.23786 0.289478 0.92716 
0.04812 0.276073 0.103473 -0.0513728 0.209005 0.976564 
0.101137 0.261312 0.100535 0.26717 0.0612204 0.961703 
-0.211037 -0.211014 -0.0793508 -0.516494 0.294819 -0.803937 
-0.134038 -0.0967547 -0.240552 -0.537998 0.632595 -0.557119 
0.125491 0.334063 0.221529 -0.962992 -0.262545 0.0609727 
-0.114499 0.0559913 -0.0666915 -0.895805 0.183968 -0.404584 
-0.109244 -0.0876519 -0.238924 0.0234099 0.561512 -0.827137 
0.0172948 0.113576 -0.194838 -0.650797 0.187011 -0.73586 
-0.0462393 -0.209207 -0.0422829 -0.849023 0.0859563 -0.521318 
-0.00130053 0.177032 -0.16967 -0.736126 0.385535 -0.55631 
-0.0586993 0.375704 0.0222683 -0.0790481 0.994718 0.0654852 
0.0660263 0.189465 0.117077 0.153943 0.197089 0.968224 
0.1225 -0.160747 0.122596 0.803681 -0.0348791 0.594037 
0.0765545 0.267472 0.10629 0.069332 0.125607 0.989654 
0.148635 0.246505 0.0722206 0.701359 0.225329 0.676256 
0.147019 0.375829 -0.11113 0.146429 0.977972 -0.148762 
0.133293 0.0559159 0.13964 0.808525 0.0505361 0.586288 
-0.0512809 0.356125 0.0639144 -0.350187 0.498934 0.792738 
-0.220247 -0.244123 -0.0844401 -0.733198 0.397589 -0.551673 
0.145073 0.0807129 0.00974426 0.0579759 0.210108 0.975958 
0.115868 0.0405082 0.151816 0.147805 0.204393 0.967666 
-0.205265 -0.089366 -0.0484918 -0.750216 0.522856 -0.404719 
0.0891765 0.372305 -0.137931 0.0318076 0.859569 -0.510029 
0.124296 0.344851 0.0954176 0.445039 -0.122681 0.887068 
0.0620523 0.0571414 -0.0430874 -0.0395689 -0.217998 -0.975147 
-0.091001 0.228977 -0.0324875 -0.910917 0.354691 -0.21077 
-0.122239 0.0489135 0.0400635 -0.858371 0.512707 0.0182008 
0.127557 -0.165228 0.111939 0.956502 -0.05529 0.286437 
0.0425562 0.17704 -0.189401 -0.299533 0.337467 -0.89241 
0.136467 -0.0714239 0.120091 0.95913 -0.10032 0.264585 
0.0312263 0.381204 -0.0777043 0.0379401 0.999245 -0.00832235 
-0.0353161 0.360674 -0.0636992 -0.69693 0.346375 -0.627944 
-0.110056 0.166763 -0.0404801 -0.983493 0.180631 0.0106394 
0.072875 0.375612 0.0142684 -0.506186 0.855026 0.112718 
-0.00199382 0.378453 -0.102009 -0.432743 0.83471 -0.340577 
0.176229 0.364837 -0.00306249 0.910551 0.380173 0.162376 
0.134443 0.365736 0.222013 0.835125 0.538722 0.111102 
0.176543 0.282632 -0.028726 0.995725 0.0596172 -0.070556 
0.171956 0.26145 -0.066494 0.966725 0.223315 -0.124794 
0.166797 0.186034 0.00654114 0.309381 -0.139205 0.940694 
0.111142 0.0993295 0.134268 0.13373 0.306996 0.942268 
0.0650606 -0.0127583 -0.21206 -0.127513 0.22685 -0.965546 
0.0879954 0.375642 -0.0260228 0.0239057 0.999228 0.0311904 
0.201409 0.170388 -0.0315755 0.981088 0.119374 0.15237 
0.14653 0.0571112 0.0161452 0.136518 0.257579 0.956565 
0.178462 0.267482 -0.00578087 0.954633 0.263754 0.138237 
0.144616 0.375283 -0.108393 0.102305 0.990031 -0.0968109 
0.0865726 0.420584 0.0139927 0.973977 -0.178654 0.139471 
-0.106412 0.1453 -0.0214182 -0.947575 0.162172 0.275323 
0.0146838 0.375359 0.0176735 0.037837 0.997183 0.0647647 
-0.0371268 0.210835 0.0968029 -0.409512 0.251446 0.876969 
0.0683606 0.465209 0.00796805 -0.223316 0.664279 -0.713346 
0.0883604 0.418183 0.109304 -0.6465 0.630901 0.428955 
-0.200787 -0.0803154 -0.0395548 -0.812645 0.560584 -0.15923 
0.0285888 -0.166139 -0.225943 -0.693501 0.330253 -0.640304 
0.157251 0.186989 0.0741925 0.915591 -0.0467979 0.399379 
0.193468 -0.002887 0.00467848 0.747516 0.196156 0.63462 
0.122236 0.322263 0.0912819 0.485516 -0.0621141 0.872018 
-0.214488 -0.252182 -0.0754799 0.523599 -0.502693 0.687854 
0.00896222 0.231218 0.0926095 -0.070873 0.0222166 0.997238 
0.116295 0.374877 -0.0711352 0.0259401 0.99957 0.0136529 
0.128138 0.3343 0.275294 0.337721 0.0559512 0.939582 
0.118813 -0.0278374 0.153301 0.719317 -0.135589 0.681321 
0.0943877 0.280375 0.100412 0.192552 0.0760603 0.978335 
-0.0148415 0.0321208 -0.213437 -0.428522 0.503216 -0.750428 
-0.150383 -0.0442137 0.0121692 0.13985 -0.358465 0.923008 
-0.114302 0.122948 -0.0524159 -0.872052 0.102629 -0.478531 
0.12108 0.313298 0.093519 0.474822 -0.0310596 0.879533 
-0.0217866 0.353315 -0.0829114 -0.876825 0.181774 -0.445125 
-0.206941 -0.208412 -0.0805352 -0.481289 0.287898 -0.827935 
-0.0801376 0.324694 0.00835938 -0.999095 0.0422173 0.00524289 
-0.0157751 -0.216049 -0.0599089 -0.223668 0.155108 -0.962244 
0.13734 0.0025558 0.129881 0.900001 -0.0325554 0.434671 
-0.0214917 0.377828 -0.0570006 -0.262298 0.947139 -0.184737 
0.0120076 0.285416 -0.14564 -0.490667 0.194966 -0.849255 
0.139195 0.0545655 0.0195293 0.0274734 0.229142 0.973005 
0.0164346 -0.196237 -0.233784 -0.636216 0.305714 -0.708356 
-0.059782 0.375545 0.0414041 -0.246267 0.934982 0.255268 
0.0139259 0.24747 -0.155383 -0.447085 0.244875 -0.86032 
-0.0891102 0.0415649 -0.115528 0.142608 0.645401 -0.750414 
0.154097 0.347137 0.068494 0.818076 -0.205456 0.537159 
-0.10491 0.079122 -0.0826657 -0.768825 0.465297 -0.438643 
-0.0719581 0.33052 -0.0188129 -0.843398 0.0454676 -0.535362 
0.034275 0.0929337 -0.0538223 0.0711931 -0.109573 -0.991426 
0.0478689 0.169852 0.121842 -0.0411336 0.255152 0.966026 
-0.120758 0.0555537 0.0388151 -0.801507 0.589049 -0.102995 
0.195226 0.0738959 -0.0296715 0.98654 -0.0743243 0.145652 
0.0920967 0.437364 0.0892177 0.52035 0.797595 0.305087 
-0.0215511 -0.267186 -0.0611433 -0.354337 -0.0792269 -0.931755 
0.0612344 0.482362 0.0248852 -0.344251 0.580669 -0.737777 
0.0908152 0.18893 0.111243 0.239718 0.155496 0.958309 
0.167131 0.372913 -0.0622332 0.346034 0.936402 -0.0584096 
0.194769 0.212784 -0.0302359 0.988141 0.13619 0.0709155 
0.0796077 0.404023 -0.00542516 0.983812 0.088943 -0.155572 
0.138483 0.122114 0.00322353 -0.189237 0.138236 0.972152 
0.189904 0.199188 -0.00736297 0.912479 0.0353397 0.407595 
0.058427 0.374118 0.0014121 0.0286913 0.998217 0.0523443 
-0.0127358 -0.213895 0.0460263 0.0852428 0.0296172 0.99592 
-0.221456 -0.242877 -0.0821265 -0.733198 0.400273 -0.54973 
-0.105258 0.00634349 -0.125988 -0.87824 0.242522 -0.412161 
-0.032067 0.0284157 -0.186742 -0.809901 0.586041 -0.0248115 
0.157169 0.302304 0.0536609 0.852746 0.0470558 0.520202 
0.146945 0.105789 0.110773 0.863738 0.12771 0.487491 
0.144013 0.124043 0.00216935 -0.22821 0.121001 0.966064 
0.134903 0.34848 0.264303 0.471491 0.723467 0.504273 
0.119907 0.288842 0.092297 0.468736 0.0340913 0.88268 
0.177925 0.366462 -0.0575742 0.827094 0.555204 -0.0875446 
0.0949474 0.376001 -0.0243382 0.02626 0.998998 0.0362411 
-0.0682761 0.290103 -0.0337449 -0.853863 0.233615 -0.465125 
0.130902 -0.269548 0.15585 0.719633 0.419834 0.553053 
0.0160014 0.15 -0.185615 -0.54301 0.133094 -0.829112 
0.127496 -0.332636 0.188383 0.425231 0.0781482 0.901705 
0.196871 0.208307 -0.0262578 0.982551 0.096635 0.158919 
0.124065 0.33117 -0.138254 0.284572 0.115589 -0.951661 
-0.0455695 -0.242165 -0.0249466 -0.970346 -0.00508369 -0.241667 
0.20298 0.15752 -0.03794 0.992988 0.101101 0.0612596 
0.0535068 0.131403 0.134071 0.015515 0.234021 0.972108 
0.113949 0.37368 -0.074754 0.026095 0.999592 0.0115828 
0.00561037 0.327299 -0.131226 -0.553647 0.204056 -0.807364 
0.0996758 0.11818 0.125419 0.192432 0.304334 0.932926 
0.112145 0.0353459 0.156032 0.123619 0.196343 0.972712 
0.0966013 0.372335 0.0325741 0.0841671 0.955325 0.28332 
0.0523278 0.376374 0.0211305 0.0118567 0.998314 0.0568289 
-0.0720591 0.26548 -0.0440175 -0.818865 0.256539 -0.513466 
-0.00317803 0.26616 -0.136463 -0.78345 0.204012 -0.587014 
0.108879 0.323519 0.10009 0.274686 -0.0561462 0.959893 
-0.00744651 -0.236691 -0.229114 -0.753297 0.429493 -0.498076 
-0.0398716 -0.130299 -0.00532348 -0.987738 0.156119 -0.000763206 
0.197856 0.0973904 -0.018451 0.959715 -0.15195 0.236344 
-0.0717915 0.352479 -0.021595 -0.908203 0.0308828 -0.41739 
-0.0204682 0.254339 -0.084115 -0.883424 -0.0207083 -0.468117 
-0.0890717 0.0889554 -0.0867245 -0.243727 0.375299 -0.894286 
-0.0816289 0.260336 -0.032638 -0.896496 0.303655 -0.322628 
0.0632344 0.453804 0.0420644 -0.911529 -0.170215 0.374354 
0.00520962 0.379929 -0.0924885 -0.0440125 0.99699 -0.06383 
-0.158281 0.0014606 -0.00548969 -0.906702 0.338438 0.251697 
-0.0119416 0.284015 -0.120944 -0.918407 0.0564689 -0.391586 
-0.0156394 0.349902 -0.0981854 -0.85441 0.0912715 -0.511521 
0.0637185 0.148672 0.129649 0.139593 0.256081 0.956523 
0.0228014 0.374059 0.029092 0.0268885 0.997514 0.065135 
0.0723548 0.377105 -0.072568 0.0321391 0.999456 0.00745676 
-0.0725824 0.303598 -0.0215632 -0.865848 0.160789 -0.473765 
-0.13161 -0.139241 -0.27424 -0.548058 0.490798 -0.677311 
-0.127603 -0.0997113 -0.247759 -0.342608 0.628781 -0.698036 
-0.0171896 -0.068523 0.0441749 -0.309241 0.0200748 0.950772 
0.196562 -0.115489 0.0441129 0.338424 0.371287 0.864648 
0.0156905 0.0180368 -0.223408 -0.143144 0.294764 -0.944788 
-0.0410952 0.377197 0.00296774 0.00321307 0.998829 0.0482802 
0.0621849 0.421075 -0.0563966 -0.993075 -0.117189 -0.00830793 
-0.0568636 0.288336 -0.058422 -0.731441 0.225528 -0.643531 
-0.00489756 0.219427 -0.14722 -0.871836 0.0672285 -0.485161 
0.0683747 0.0835796 -0.196124 0.225216 0.124949 -0.966264 
0.0868448 0.149726 0.122512 0.267291 0.262372 0.927209 
0.0571109 0.135509 -0.205431 -0.164326 0.237613 -0.957359 
0.128274 0.323866 0.0870995 0.57062 -0.0698255 0.81824 
-0.0367986 0.000416395 -0.219986 -0.486934 0.446074 -0.750942 
-0.0134404 0.253243 0.0881566 -0.0634198 0.219428 0.973565 
-0.0375865 0.210413 -0.0739018 -0.296214 0.181348 -0.937747 
-0.219321 -0.110806 -0.0419746 -0.896073 0.416127 -0.154568 
0.141283 0.034636 0.124286 0.949318 -0.0409508 0.31164 
0.0126723 0.17463 -0.0617816 -0.64392 -0.164778 -0.747138 
0.0697333 0.455595 -0.00268218 -0.178565 0.767222 -0.616024 
-0.00237884 0.199047 -0.157419 -0.756315 0.157231 -0.635032 
0.060907 0.375765 0.00871134 -0.0094743 0.998374 0.05621 
0.196748 0.214747 -0.0385184 0.983533 0.177593 -0.0335087 
0.097594 0.23434 0.104385 0.254433 0.0672478 0.96475 
-0.102709 0.0815102 -0.08332 -0.72463 0.467924 -0.505923 
0.0768941 0.380393 0.0258021 0.0248667 0.213377 0.976653 
-0.0539022 0.308346 -0.0538277 -0.836825 0.285677 -0.467026 
0.11426 0.284303 -0.150594 0.217915 0.210214 -0.95306 
-0.0394847 0.378637 -0.0139352 -0.0126665 0.999281 0.035728 
0.144971 0.0830982 0.124091 0.894922 0.0842016 0.438206 
0.0815552 0.209291 0.112546 0.20651 0.158272 0.965559 
0.140367 0.283934 0.081058 0.705394 0.0516407 0.706932 
0.205469 -0.0402251 0.00496615 0.759119 0.329038 0.56167 
0.165263 0.372633 0.037367 0.780961 0.598866 0.177365 
0.046486 0.136259 -0.204044 -0.238376 0.248991 -0.938712 
-0.112143 0.143226 -0.0539972 -0.770695 0.161545 -0.616386 
0.0419195 -0.00641015 -0.101293 -0.996682 -0.0807863 -0.00992368 
-0.0719453 0.267179 -0.0460538 -0.782091 0.212043 -0.585978 
0.0592224 0.37718 -0.0946991 0.0277873 0.999478 -0.0164541 
0.176874 0.266993 -0.0241846 0.95738 0.280308 -0.0696507 
0.012271 0.324598 -0.1353 -0.496583 0.202819 -0.84396 
0.177906 0.261887 -0.0449763 0.930631 0.319639 -0.178207 
0.0113146 0.260094 -0.152833 -0.512039 0.244472 -0.823438 
0.110618 0.169528 0.113296 0.186527 0.176126 0.966533 
-0.000283273 0.365561 -0.118079 -0.658364 0.276353 -0.700133 
0.112699 0.375925 -0.0729314 0.0255489 0.999604 0.0117826 
0.130278 0.367345 0.212306 0.902739 0.42999 0.0130654 
0.0875582 0.488881 0.0223317 -0.0240383 0.602023 -0.798117 
0.185851 0.109777 0.00155257 0.633509 -0.0621593 0.771235 
0.146256 0.232648 0.0824081 0.596942 0.200822 0.776743 
-0.0575422 -0.0283276 -0.222845 -0.461265 0.52508 -0.71521 
0.212889 -0.187458 0.0731824 0.886804 -0.00924524 0.462053 
0.0581459 0.488493 0.0283395 -0.489576 0.547867 -0.678349 
0.0570709 0.447631 0.014246 -0.991147 -0.110291 0.0739116 
0.190033 0.233647 -0.0368475 0.949084 0.298679 -0.100148 
-0.0467012 0.00504324 -0.201967 -0.784464 0.53568 -0.312511 
0.168094 0.283923 0.0332925 0.938312 0.0957264 0.332276 
-0.057345 0.189338 -0.0725343 -0.364488 0.35299 -0.861711 
-0.00776577 0.0619024 -0.162159 -0.917066 0.314857 0.244652 
0.138235 0.202046 0.0928299 0.55629 0.198624 0.806901 
-0.033988 0.199844 -0.0772624 -0.202708 0.157061 -0.966562 
0.0662779 0.395499 -0.0301434 -0.972399 -0.222388 0.0705979 
0.14361 0.298972 0.0734013 0.749748 0.00915425 0.66166 
0.0815012 0.445975 0.0719705 -0.0895914 0.81281 0.575598 
0.119331 0.0892361 0.00652465 -0.101046 0.184781 0.977571 
-0.037972 0.000714162 -0.217295 -0.510415 0.456634 -0.728671 
0.191431 0.238159 -0.0335797 0.947113 0.311634 -0.0765573 
0.181371 0.362987 -0.0404706 0.962543 0.270494 -0.0185677 
0.0693097 0.185966 0.118996 0.181011 0.194743 0.964007 
-0.211211 -0.110873 -0.0599743 -0.630116 0.468346 -0.619359 
0.0605414 0.446365 0.0343624 -0.97291 -0.126881 0.193255 
0.144347 0.323714 0.26125 0.862507 -0.304971 0.403824 
0.180962 -0.066725 0.0259297 -0.0384612 0.256417 0.965801 
0.0172276 0.108245 -0.19845 -0.633979 0.204339 -0.745866 
-0.183544 -0.0509715 -0.0262435 -0.912046 0.409204 0.0268998 
0.0622498 0.410003 -0.0474692 -0.977174 -0.203678 0.0603836 
0.0553831 0.377986 -0.0604838 0.0295913 0.999475 0.0132084 
-0.0597859 0.274787 -0.0556323 -0.693082 0.128819 -0.709256 
0.188322 0.191803 -0.000320804 0.759009 -0.0149296 0.650909 
0.0814068 0.476806 0.0595439 0.257383 -0.0384643 0.965544 
0.0223592 0.303183 0.0951515 -0.106572 0.251539 0.961962 
0.00378801 0.220034 0.0952304 0.154526 0.0151717 0.987872 
0.0764832 0.315451 0.101881 -0.0412327 -0.0123751 0.999073 
0.160366 0.213855 0.0705482 0.889909 0.00481596 0.456113 
0.17798 0.201199 0.0117347 0.62299 -0.220696 0.750451 
-0.00691567 0.0610947 -0.0580424 -0.413347 0.174735 -0.893651 
-0.0419479 0.219569 0.0881231 -0.860376 0.297539 0.413792 
-0.0942987 -0.057552 -0.206805 -0.658243 0.730881 0.180356 
-0.0568257 0.366974 -0.0433844 -0.730326 0.18257 -0.658249 
0.168434 0.243429 0.0418889 0.926962 0.0504609 0.371745 
0.0364733 -0.177432 -0.238726 -0.46663 0.275816 -0.840346 
0.194729 -0.184603 0.0901089 0.256954 0.549832 0.79477 
2.55166e-005 0.328035 -0.126932 -0.694407 0.194548 -0.692784 
-0.0272996 0.329584 -0.0864415 -0.83933 0.0362087 -0.542414 
0.0738489 0.471484 0.0611185 0.0455083 -0.276852 0.959834 
0.131456 -0.270047 0.151396 0.749199 0.410208 0.520028 
0.0383519 0.317718 0.094139 -0.197637 0.1325 0.971279 
0.122758 0.336249 0.096146 0.443533 -0.0988287 0.890792 
-0.0156075 0.174216 0.0995008 0.503745 -0.196273 0.84126 
-0.000440927 0.0584159 -0.20317 -0.583012 0.481058 -0.654737 
-0.194077 -0.0804306 -0.0229115 -0.838748 0.423946 0.34172 
-0.00013139 0.0929911 -0.178694 -0.886526 0.179773 -0.426325 
0.0749585 0.45652 -0.00330953 -0.143747 0.769859 -0.621815 
0.126956 -0.0637509 0.137393 0.628285 -0.0938232 0.772305 
-0.130241 0.0367581 -0.0566523 -0.66372 0.0319142 -0.7473 
0.138131 -0.0271884 0.123657 0.947814 -0.0556157 0.313937 
0.10101 0.27115 -0.155494 0.0854034 0.192917 -0.977491 
-0.0526403 -0.0252952 -0.224288 -0.463884 0.509127 -0.724984 
0.165797 0.267625 0.0467186 0.916362 0.0599503 0.395838 
0.072209 -0.0196551 -0.0102331 0.943001 -0.00119475 0.332789 
-0.0948959 0.206454 -0.00339688 -0.978271 0.114466 0.172869 
-0.0588191 -0.0800261 -0.191918 -0.458334 0.448227 -0.767478 
-0.112501 0.147197 -0.0401911 -0.978714 0.187903 0.0825341 
-0.072961 0.325459 0.032745 -0.94677 0.026678 0.320805 
-0.0552894 0.335928 0.0602815 -0.456558 0.0729093 0.886701 
-0.132022 -0.0201636 0.0170372 0.32557 -0.461885 0.825025 
-0.0570911 0.379027 -0.0202996 -0.231152 0.969962 -0.0757801 
0.17936 0.360286 -0.0162109 0.951162 0.284566 0.119637 
0.144151 0.0315716 0.107978 0.989355 -0.019241 0.144243 
-0.0798331 0.313407 0.00896627 -0.999456 0.032964 0.000524816 
-0.0978327 -0.0728337 -0.230694 -0.23116 0.525163 -0.819005 
-0.214492 -0.118139 -0.0601959 -0.623838 0.430514 -0.652292 
0.0222437 0.346473 -0.135137 -0.394203 0.203404 -0.896232 
0.0263872 0.162803 -0.0774836 -0.82364 -0.157907 -0.544686 
-0.0851079 0.113578 -0.0806445 -0.351227 0.240947 -0.904756 
0.0893147 0.428351 0.0285921 0.56255 -0.291054 0.773838 
0.178086 0.138323 0.00770581 0.230176 0.126402 0.964905 
-0.125832 0.0705374 -0.0106895 -0.832341 0.411013 0.371856 
0.0729048 0.376313 -0.129574 -0.00635313 0.926407 -0.376469 
0.158825 0.104539 0.00765824 -0.116781 0.0370744 0.992465 
0.0514233 0.328211 0.0981408 -0.267855 0.00189186 0.963457 
0.125785 0.283282 0.0889177 0.527439 0.0476654 0.848255 
0.15073 0.0595769 0.0119116 0.157235 0.247038 0.956164 
0.0687175 0.405049 -0.0354113 -0.96928 -0.241893 0.0445315 
0.0668635 0.487705 0.0259191 -0.25869 0.616256 -0.743847 
0.0473687 -0.0961938 -0.218436 -0.65463 0.164063 -0.737932 
0.000148396 -0.28126 0.0486716 -0.193916 0.0824324 0.977549 
-0.0443 0.190355 -0.0763321 -0.193651 0.259022 -0.946259 
0.0794391 0.432259 -0.0160357 0.851147 0.230811 -0.47146 
-0.13681 -0.137692 -0.273849 -0.557726 0.488963 -0.670714 
0.196279 0.149129 -0.0115271 0.863212 0.0716311 0.499734 
0.00193747 0.134214 -0.0571004 -0.190693 -0.0841907 -0.978033 
-0.0765116 0.353891 0.0104493 -0.985676 0.164446 0.0374223 
0.0582471 0.378941 -0.101686 0.0234261 0.999385 -0.0260789 
0.0275627 0.379765 -0.0339087 0.0230424 0.998846 0.0421319 
0.129059 0.256534 0.090705 0.518067 0.0806875 0.851526 
0.021858 -0.185387 -0.232459 -0.698822 0.382131 -0.604669 
0.175383 0.321972 -0.0318604 0.995567 -0.093746 0.00756753 
-0.0232756 0.0208841 -0.0478821 -0.844154 -0.0468264 -0.534052 
0.140343 0.3139 0.0787355 0.690915 -0.0450897 0.721529 
0.111238 0.373511 0.0680402 -0.0244229 0.999633 0.0117343 
-0.12214 -0.117521 -0.262593 -0.39467 0.577636 -0.714543 
0.0160056 0.377439 -0.109311 -0.0379184 0.99198 -0.120571 
0.0600578 0.430991 -0.00424657 -0.98531 -0.169042 0.0242602 
0.00717598 0.169938 -0.113982 -0.971959 -0.133371 0.193668 
0.0665057 0.374792 0.0661871 -0.0400528 0.997908 0.0507528 
0.0637545 0.239117 -0.168598 0.0822852 0.350491 -0.932944 
-0.00209933 0.235264 0.0936312 0.0719893 0.156582 0.985038 
0.0848963 0.446397 0.0752349 0.128177 0.845874 0.517753 
-0.0647328 0.373042 -0.0286938 -0.772599 0.452308 -0.445543 
-0.048607 -0.159035 -0.029858 -0.926269 0.115103 -0.358856 
-0.0272621 0.340905 0.0719871 -0.33911 0.0315664 0.940217 
-0.00997163 -0.0757924 -0.0565085 -0.659226 -0.132832 -0.74012 
0.169342 0.352044 0.0229744 0.963924 -0.0518093 0.261085 
0.205872 -0.087361 0.0269909 0.473291 0.366221 0.801173 
-0.14494 0.0470067 -0.0312748 -0.905067 0.423964 0.0332941 
-0.0508477 0.380674 -0.0200178 -0.156064 0.986448 -0.0506383 
-0.00334765 -0.0486401 -0.0691943 -0.720854 -0.0967 -0.686308 
0.0482674 0.378372 -0.0791747 0.0325488 0.999464 -0.00340758 
0.000820888 0.149385 -0.169837 -0.908889 0.0507676 -0.413936 
0.141049 0.133204 0.110194 0.646314 0.225857 0.728881 
0.0622023 0.378119 -0.122558 0.012813 0.997124 -0.0746973 
-0.217141 -0.210736 -0.0722218 -0.647506 0.231993 -0.725889 
0.0713683 0.192116 0.117696 0.16493 0.190156 0.967801 
0.0426679 -0.179298 -0.239258 -0.42434 0.247519 -0.871017 
-0.115702 0.0839383 -0.0595412 -0.628657 0.277794 -0.726375 
0.120827 -0.0590267 0.142127 0.579399 -0.110053 0.80758 
-0.0164848 0.282997 -0.0975398 -0.930821 -0.0822035 -0.35611 
0.0620153 -0.0470916 -0.0378454 0.628737 0.0168971 -0.777434 
-0.111186 -0.0309511 -0.132554 -0.865562 0.123439 -0.485351 
0.105259 0.367885 0.100702 0.159166 0.548554 0.820825 
0.122924 -0.231285 0.139962 0.808295 0.309819 0.500671 
-0.0138674 -0.00184075 -0.0621317 -0.776871 -0.00743822 -0.629616 
0.150505 0.354834 0.078298 0.72682 -0.209893 0.653971 
-0.0164683 0.380304 -0.0313957 0.0209538 0.999271 0.0319239 
0.123655 0.359112 0.245824 0.0698902 0.837463 0.542007 
0.0616474 0.316803 0.0999432 -0.191587 0.0116546 0.981407 
-0.0730174 -0.0797381 -0.16027 -0.265871 0.151373 -0.95205 
0.123474 0.196318 0.106359 0.31715 0.308378 0.896838 
-0.087526 0.167078 -0.0628802 -0.469716 0.158595 -0.868455 
0.153307 0.205342 0.0807213 0.761548 0.0457005 0.646495 
0.103757 0.0415071 0.151979 -0.0257575 0.233902 0.971919 
0.0835233 0.363011 -0.145235 0.0148304 0.417245 -0.908673 
-0.0411777 -0.133665 0.0409458 -0.39868 0.0583992 0.915229 
0.0691831 0.266144 -0.156787 0.0471987 0.262254 -0.963844 
-0.120503 -0.0809702 -0.225835 -0.511244 0.764406 -0.392826 
-0.103591 0.0125919 -0.1271 -0.74424 0.344858 -0.571997 
0.15979 -0.0252683 0.0228274 0.0872088 0.00456707 0.99618 
0.158883 0.374111 0.0444815 0.67849 0.718645 0.152319 
0.133919 0.0718591 0.137227 0.630133 0.253706 0.733871 
0.000496561 0.280026 -0.137423 -0.736557 0.138492 -0.662045 
0.061889 -0.140161 -0.240631 -0.376621 0.23598 -0.895807 
-0.0672211 -0.0942038 -0.166694 -0.19148 0.264063 -0.945308 
0.125428 0.25162 0.0926927 0.475943 0.0759574 0.87619 
0.0200157 0.353769 -0.136853 -0.410733 0.20428 -0.888577 
-0.0200393 0.0279105 -0.0506382 -0.73311 0.0417892 -0.678825 
0.0517579 0.0161152 -0.205669 -0.0243876 0.115916 -0.99296 
-0.0150772 0.376768 -0.0761436 -0.520371 0.821951 -0.23154 
-0.100675 0.0374215 0.0485996 0.0393173 -0.504894 0.862285 
-0.0841856 0.209129 -0.0579096 -0.413876 0.335901 -0.846096 
0.116942 0.240843 -0.157805 0.121904 0.0979918 -0.987693 
0.0844249 0.123323 0.128865 0.237695 0.255136 0.937233 
0.0298938 0.00360102 -0.0488312 0.425094 -0.00901536 -0.905104 
-0.0334297 0.0225293 -0.183049 -0.824288 0.564299 0.0460017 
0.105368 0.0613392 0.145321 -0.149911 0.274855 0.949727 
0.16879 0.342356 0.0254196 0.966323 -0.036427 0.254741 
-0.087299 0.240783 -0.0280967 -0.910747 0.346442 -0.224762 
0.0506195 0.37473 0.0256987 0.00942083 0.998465 0.0545791 
0.133795 -0.0548023 0.0966994 0.997345 -0.0728253 0.000563265 
0.178088 0.326013 -0.0263423 0.993023 -0.0975655 0.0662286 
0.158997 -0.0359469 0.01667 -0.118303 -0.0455006 0.991935 
0.00483348 0.311267 -0.134062 -0.63506 0.176662 -0.751991 
0.137699 0.0757653 0.131914 0.643402 0.25604 0.721441 
0.192638 -0.096857 0.0367929 0.206107 0.35322 0.912555 
0.0926039 0.320718 0.100928 0.117297 -0.0607238 0.991239 
0.123803 -0.288154 0.176498 0.443057 0.395731 0.804424 
0.18938 0.144856 0.00177347 0.64952 0.07169 0.756957 
0.033761 0.37756 -0.0851479 0.0344334 0.999366 -0.00907711 
-0.0415145 0.377782 -0.0459816 -0.310628 0.825885 -0.470557 
-0.0506697 0.375972 -0.0429104 -0.424513 0.767365 -0.480562 
0.122216 0.273441 0.0929911 0.443272 0.0618853 0.894248 
0.114244 -0.0416488 0.151043 0.627832 -0.188434 0.755195 
-0.113951 0.0343421 -0.0947805 -0.939242 0.109446 -0.325341 
0.143205 0.327606 0.246423 0.99421 0.0339207 -0.101964 
