ply
format ascii 1.0
comment VCGLIB generated
element vertex 812
property float x
property float y
property float z
property float nx
property float ny
property float nz
element face 0
property list uchar int vertex_indices
end_header
0.220165 -0.0896361 -0.0327359 0.827954 0.281488 0.485032 
0.223835 -0.0886012 -0.0386275 0.76822 0.317152 0.556104 
0.227514 -0.0875682 -0.0444958 0.761771 0.357159 0.540502 
0.293213 -0.0686021 -0.0845726 0.947432 -0.316968 0.0436409 
0.29346 -0.0685247 -0.0893755 0.955641 -0.292941 -0.0306037 
0.292881 -0.0687365 -0.0939781 0.952184 -0.246547 -0.180442 
0.29171 -0.0690738 -0.0984471 0.914121 -0.209323 -0.347227 
0.28932 -0.0697736 -0.102642 0.797144 -0.167027 -0.580227 
0.285412 -0.0709234 -0.106506 0.656471 -0.0932973 -0.748559 
0.280474 -0.0723427 -0.110161 0.570885 -0.0518997 -0.819388 
0.274951 -0.0739629 -0.113707 0.549836 -0.0500795 -0.83377 
0.207593 -0.101399 -0.00123461 0.91154 0.19124 0.364037 
0.209699 -0.100775 -0.00683614 0.878911 0.204137 0.431096 
0.212888 -0.0998525 -0.0127024 0.87254 0.204468 0.443698 
0.215282 -0.0991612 -0.0183396 0.872683 0.188113 0.450598 
0.218407 -0.0982349 -0.0241478 0.876944 0.187063 0.442693 
0.220984 -0.0974829 -0.029793 0.854709 0.216181 0.471952 
0.224115 -0.0965588 -0.0355588 0.777041 0.250946 0.577264 
0.229195 -0.0950833 -0.0417861 0.745332 0.274244 0.607677 
0.289261 -0.0774618 -0.0806356 0.916874 -0.327983 0.22753 
0.290663 -0.0770688 -0.0857206 0.941035 -0.303616 0.149234 
0.29098 -0.0769797 -0.0905426 0.961219 -0.275462 -0.0133524 
0.29057 -0.0771104 -0.0951908 0.948426 -0.252331 -0.19188 
0.28892 -0.0775982 -0.0995557 0.897911 -0.212093 -0.385711 
0.28653 -0.0783037 -0.103758 0.788359 -0.15879 -0.594369 
0.282449 -0.0795211 -0.107592 0.649683 -0.103538 -0.753121 
0.277204 -0.0810628 -0.111189 0.561975 -0.0702778 -0.824163 
0.209996 -0.108874 -0.00372618 0.879642 0.162779 0.446915 
0.212996 -0.107972 -0.00955269 0.881544 0.162519 0.443247 
0.215338 -0.107229 -0.0151883 0.893945 0.15405 0.42087 
0.218175 -0.106454 -0.0209238 0.880021 0.162838 0.446146 
0.220515 -0.105702 -0.0265215 0.860443 0.185314 0.474654 
0.224271 -0.104607 -0.0324531 0.792877 0.20714 0.573096 
0.229157 -0.10317 -0.0386432 0.752587 0.220481 0.620485 
0.233072 -0.101931 -0.0445678 0.786781 0.237752 0.569605 
0.286321 -0.0860635 -0.0816939 0.915838 -0.276319 0.291356 
0.288226 -0.0855645 -0.0868953 0.946219 -0.267314 0.182242 
0.288502 -0.0854395 -0.0917153 0.970594 -0.240532 -0.00959628 
0.288132 -0.0855395 -0.0963784 0.958424 -0.222985 -0.178047 
0.286885 -0.0859603 -0.100836 0.895593 -0.199075 -0.397847 
0.283981 -0.0867614 -0.104934 0.784617 -0.14082 -0.603776 
0.280355 -0.08791 -0.108872 0.642924 -0.0778625 -0.761962 
0.274521 -0.0896268 -0.112351 0.523575 -0.0570906 -0.850065 
0.209639 -0.117168 -0.000440072 0.875811 0.180825 0.447501 
0.212413 -0.116311 -0.00621713 0.883583 0.155318 0.441765 
0.215227 -0.11546 -0.0119821 0.900899 0.123661 0.41604 
0.21765 -0.114721 -0.0176245 0.878748 0.125134 0.460591 
0.221014 -0.113705 -0.0234903 0.844634 0.166566 0.508772 
0.224466 -0.112661 -0.029355 0.824697 0.193184 0.531558 
0.228019 -0.11157 -0.0352219 0.765603 0.185157 0.616092 
0.233507 -0.109895 -0.0415481 0.744089 0.208914 0.634576 
0.237644 -0.108627 -0.0475057 0.73523 0.256107 0.627572 
0.282834 -0.0949364 -0.0778465 0.925334 -0.26648 0.269712 
0.284487 -0.0944258 -0.0830104 0.921557 -0.232514 0.310918 
0.286454 -0.0938312 -0.0882323 0.955527 -0.231443 0.182762 
0.28684 -0.0937259 -0.0930749 0.97126 -0.22924 -0.0640533 
0.285733 -0.0940512 -0.0975729 0.939839 -0.224179 -0.257771 
0.284116 -0.0945362 -0.101956 0.893994 -0.186792 -0.407287 
0.28164 -0.095273 -0.106153 0.78998 -0.130766 -0.599026 
0.277497 -0.0965227 -0.10999 0.634792 -0.0758644 -0.76895 
0.272 -0.0981886 -0.11355 0.525517 -0.0457772 -0.84955 
0.212865 -0.124424 -0.00314706 0.910013 0.14426 0.38867 
0.214927 -0.12371 -0.00872686 0.914732 0.140535 0.378834 
0.217004 -0.123107 -0.0142839 0.896886 0.13775 0.420263 
0.220089 -0.122145 -0.0200893 0.845203 0.140846 0.515552 
0.2239 -0.120922 -0.026062 0.830729 0.145234 0.537398 
0.227396 -0.1199 -0.0319201 0.795379 0.162837 0.583829 
0.232564 -0.118256 -0.0381834 0.732738 0.16846 0.65933 
0.237815 -0.116656 -0.0444285 0.730687 0.190703 0.655537 
0.243216 -0.114979 -0.0506802 0.710229 0.213274 0.670886 
0.28063 -0.103419 -0.079079 0.895621 -0.207018 0.393709 
0.283378 -0.102595 -0.0844981 0.926279 -0.236176 0.293645 
0.284372 -0.102226 -0.0894987 0.953505 -0.285352 0.096971 
0.284581 -0.102201 -0.0943012 0.963703 -0.258818 -0.0654945 
0.283652 -0.102476 -0.098844 0.948713 -0.198651 -0.245931 
0.282059 -0.10292 -0.10324 0.889857 -0.17828 -0.419964 
0.279486 -0.103748 -0.107416 0.775348 -0.147208 -0.614137 
0.275163 -0.105039 -0.111224 0.596009 -0.0822166 -0.798758 
0.268847 -0.106998 -0.114615 0.484483 -0.0503018 -0.873353 
0.211984 -0.132886 0.000276785 0.903407 0.0794186 0.421365 
0.214584 -0.132076 -0.00544893 0.903817 0.095441 0.417141 
0.217165 -0.131235 -0.0111527 0.890303 0.145888 0.431367 
0.219801 -0.130409 -0.0168487 0.863986 0.171185 0.473523 
0.22314 -0.129345 -0.0227074 0.833987 0.155355 0.529462 
0.226818 -0.128172 -0.0286299 0.815882 0.146622 0.55932 
0.23112 -0.126837 -0.0346822 0.769503 0.128319 0.625619 
0.236392 -0.125165 -0.0409522 0.745207 0.106087 0.65834 
0.241801 -0.123462 -0.0472216 0.707133 0.12455 0.696025 
0.248381 -0.121394 -0.0537444 0.653028 0.105179 0.749994 
0.257326 -0.118579 -0.0608025 0.591455 0.0472462 0.804953 
0.267844 -0.115304 -0.0681839 0.621288 -0.0477626 0.782125 
0.277023 -0.112417 -0.075189 0.82904 -0.123468 0.545388 
0.279546 -0.11161 -0.0805755 0.922792 -0.133393 0.36147 
0.281069 -0.111127 -0.0857096 0.965932 -0.219065 0.13779 
0.281364 -0.111017 -0.0905483 0.963345 -0.248815 0.100289 
0.282235 -0.110752 -0.0955091 0.973184 -0.22992 0.00707827 
0.281682 -0.110906 -0.100141 0.931691 -0.212844 -0.294363 
0.279122 -0.111689 -0.104324 0.852895 -0.20138 -0.481681 
0.276564 -0.112469 -0.108516 0.777849 -0.161543 -0.607334 
0.272426 -0.113734 -0.112372 0.63821 -0.112005 -0.761671 
0.213762 -0.14054 -0.00204439 0.901928 0.0772691 0.424917 
0.216508 -0.1397 -0.00779686 0.880123 0.0891623 0.466297 
0.219819 -0.138621 -0.013682 0.871682 0.114946 0.476402 
0.222727 -0.137645 -0.0194407 0.862261 0.119841 0.492082 
0.22616 -0.136615 -0.025304 0.832924 0.127714 0.538448 
0.229777 -0.135388 -0.0312012 0.820367 0.114581 0.56024 
0.234041 -0.13403 -0.0372309 0.771028 0.0959686 0.629529 
0.239132 -0.132399 -0.04344 0.715325 0.106134 0.690684 
0.246212 -0.130095 -0.0501115 0.69052 0.0925744 0.717365 
0.252714 -0.128089 -0.0565896 0.644834 0.0538485 0.762424 
0.261754 -0.125164 -0.0636518 0.617992 0.00744764 0.786149 
0.269771 -0.122602 -0.0704131 0.664853 -0.0727183 0.743426 
0.277153 -0.12028 -0.0769736 0.817452 -0.181657 0.546601 
0.280051 -0.119284 -0.0824474 0.965158 -0.176488 0.193188 
0.279425 -0.119529 -0.0870738 0.984557 -0.174113 0.0182454 
0.280067 -0.119302 -0.0919941 0.981257 -0.177332 0.0754211 
0.280215 -0.119197 -0.0967964 0.969954 -0.224039 -0.0948417 
0.279155 -0.11957 -0.101314 0.909727 -0.222213 -0.35074 
0.276707 -0.120271 -0.105533 0.850821 -0.196264 -0.487425 
0.273883 -0.121171 -0.10967 0.731691 -0.168232 -0.66055 
0.268768 -0.122767 -0.113323 0.604231 -0.141736 -0.784102 
0.213136 -0.149076 0.00132257 0.914345 0.126054 0.384816 
0.215405 -0.148319 -0.00431728 0.897325 0.10991 0.427466 
0.218524 -0.147286 -0.0101637 0.874348 0.0836559 0.478036 
0.221629 -0.146259 -0.0159836 0.874252 0.0800945 0.47882 
0.224675 -0.145261 -0.021765 0.843671 0.0931509 0.528718 
0.228937 -0.143868 -0.0278368 0.827019 0.114688 0.550351 
0.232167 -0.142807 -0.0336181 0.805547 0.122074 0.579821 
0.237477 -0.141078 -0.0398992 0.729794 0.114945 0.673935 
0.243657 -0.139069 -0.0463632 0.72381 0.0843193 0.684828 
0.248828 -0.137381 -0.052541 0.708614 0.0544398 0.703493 
0.256148 -0.135002 -0.0592095 0.649615 0.024453 0.75987 
0.264578 -0.132278 -0.0661009 0.671568 -0.0304908 0.740316 
0.271053 -0.130168 -0.0724776 0.770192 -0.106279 0.628895 
0.274605 -0.128999 -0.0781256 0.857268 -0.179644 0.482514 
0.277773 -0.127976 -0.0836578 0.945283 -0.175117 0.27527 
0.278592 -0.127683 -0.0886279 0.983563 -0.164676 0.07407 
0.278625 -0.127635 -0.0934095 0.97433 -0.217017 -0.0598701 
0.277941 -0.127827 -0.0980226 0.947784 -0.229885 -0.22104 
0.276169 -0.128359 -0.102392 0.898886 -0.205794 -0.386851 
0.27405 -0.129025 -0.106686 0.836173 -0.200002 -0.510699 
0.270647 -0.130097 -0.110706 0.721116 -0.178532 -0.669417 
0.26586 -0.131612 -0.11444 0.621809 -0.153352 -0.768008 
0.214046 -0.157079 0.00427353 0.915953 0.0908846 0.390859 
0.215534 -0.156614 -0.00115751 0.936124 0.115458 0.332177 
0.217761 -0.155841 -0.00677656 0.905435 0.0846692 0.415954 
0.220481 -0.15491 -0.012507 0.876959 0.0732094 0.474957 
0.223806 -0.153824 -0.0183718 0.842456 0.114857 0.526381 
0.227349 -0.152599 -0.0242745 0.826537 0.113347 0.551353 
0.231673 -0.151183 -0.0303472 0.81939 0.0927203 0.565688 
0.235634 -0.149872 -0.0363005 0.77497 0.101528 0.62379 
0.240915 -0.148078 -0.0425619 0.752244 0.0639224 0.655776 
0.246092 -0.146386 -0.0487585 0.727173 0.0614788 0.683695 
0.252576 -0.144241 -0.0552449 0.685208 0.072376 0.724742 
0.25922 -0.142045 -0.0617309 0.68844 0.00666212 0.725263 
0.266294 -0.139709 -0.0682796 0.731816 -0.0751578 0.677345 
0.271483 -0.137988 -0.0743378 0.82139 -0.165897 0.545707 
0.275331 -0.136704 -0.0800485 0.892226 -0.169371 0.418624 
0.276861 -0.136177 -0.0851947 0.976529 -0.130292 0.171508 
0.276741 -0.136181 -0.0899486 0.986633 -0.138641 -0.0856404 
0.276172 -0.1364 -0.0945898 0.970151 -0.217279 -0.107685 
0.275947 -0.136357 -0.0993178 0.941363 -0.240819 -0.23631 
0.273868 -0.137054 -0.103619 0.865976 -0.23665 -0.440548 
0.271026 -0.137942 -0.107761 0.796868 -0.20233 -0.569266 
0.267361 -0.139063 -0.111738 0.666358 -0.166032 -0.726912 
0.262019 -0.14086 -0.115357 0.505145 -0.132579 -0.85279 
0.249507 -0.144826 -0.117492 0.163755 0.0144939 -0.986394 
0.20769 -0.167642 0.0142811 0.848426 -0.0397767 0.527817 
0.211559 -0.166318 0.00816103 0.821265 0.0109355 0.570442 
0.215805 -0.164896 0.00196813 0.934855 0.0102677 0.35488 
0.216788 -0.164528 -0.00332401 0.945373 0.0442854 0.322968 
0.219138 -0.163708 -0.00896718 0.886891 0.0876463 0.453588 
0.222447 -0.162584 -0.0148426 0.844994 0.0763536 0.529297 
0.227022 -0.161025 -0.0210251 0.8452 0.0790279 0.528575 
0.229732 -0.160102 -0.0266956 0.841448 0.103022 0.530425 
0.233602 -0.158781 -0.0326427 0.808093 0.0938609 0.581529 
0.238486 -0.157122 -0.0388194 0.766621 0.0877914 0.63607 
0.243193 -0.15554 -0.0449188 0.752061 0.0675207 0.655626 
0.249691 -0.153352 -0.0514314 0.707564 0.0409026 0.705465 
0.256029 -0.15122 -0.0578647 0.727939 0.0133436 0.685512 
0.261321 -0.149435 -0.0640063 0.749913 -0.0386322 0.660408 
0.266767 -0.147599 -0.0701515 0.836552 -0.124939 0.533451 
0.269058 -0.146807 -0.075516 0.868275 -0.178933 0.462689 
0.273499 -0.145301 -0.0813665 0.84447 -0.201411 0.496291 
0.277176 -0.144052 -0.0870109 0.972655 -0.217527 0.081386 
0.2756 -0.14454 -0.0914284 0.901108 -0.314281 -0.298716 
0.27378 -0.145094 -0.0957941 0.903078 -0.35863 -0.236295 
0.272398 -0.145529 -0.10026 0.912624 -0.300603 -0.277047 
0.270606 -0.146081 -0.104637 0.886813 -0.240176 -0.394814 
0.268395 -0.146772 -0.108927 0.769345 -0.233106 -0.594785 
0.263566 -0.148357 -0.112654 0.627027 -0.22413 -0.746058 
0.257777 -0.15022 -0.116199 0.323607 -0.0617622 -0.944174 
0.205957 -0.176671 0.0179869 0.888121 0.0635701 0.455192 
0.208614 -0.17574 0.0121857 0.844981 0.0250712 0.534208 
0.213563 -0.174045 0.00578133 0.879656 -0.024984 0.474953 
0.215296 -0.173417 0.00027515 0.928018 -0.0263295 0.371603 
0.218499 -0.172297 -0.0056075 0.876614 0.0448381 0.479101 
0.221857 -0.171136 -0.0115074 0.892287 0.0521729 0.448444 
0.224133 -0.170328 -0.0171007 0.865823 0.0256692 0.499692 
0.2284 -0.168852 -0.0231922 0.82329 0.0161012 0.567392 
0.233072 -0.167244 -0.0293584 0.823792 0.056675 0.564051 
0.236532 -0.166045 -0.0351863 0.800043 0.0599602 0.596939 
0.241771 -0.164249 -0.041437 0.783454 0.0507753 0.619372 
0.246111 -0.162743 -0.0474319 0.761457 0.0324419 0.647404 
0.251727 -0.160823 -0.0537111 0.73676 -0.00282469 0.676149 
0.257545 -0.158832 -0.0600044 0.757621 -0.0212348 0.652349 
0.262504 -0.157122 -0.0660556 0.794831 -0.0541183 0.604414 
0.266768 -0.155654 -0.0719087 0.867191 -0.096903 0.488456 
0.26955 -0.154682 -0.0773847 0.896352 -0.133178 0.422866 
0.271917 -0.153848 -0.0827441 0.942562 -0.247965 0.223808 
0.271759 -0.153863 -0.0875031 0.935148 -0.273317 -0.225382 
0.26907 -0.154736 -0.0916793 0.962328 -0.144282 -0.230449 
0.269798 -0.154426 -0.0966371 0.969248 -0.246066 -0.00311222 
0.269826 -0.154396 -0.101426 0.93836 -0.266626 -0.21998 
0.267532 -0.155129 -0.105698 0.801395 -0.262453 -0.53748 
0.263194 -0.156536 -0.109533 0.703868 -0.261328 -0.660514 
0.259708 -0.157668 -0.113567 0.761734 -0.30008 -0.574208 
0.204216 -0.18567 0.0216992 0.869706 -0.0691988 0.488694 
0.20771 -0.184452 0.0156544 0.879838 0.0057489 0.47524 
0.210418 -0.183485 0.00984815 0.860315 0.0464446 0.507642 
0.213959 -0.182214 0.00383525 0.907294 -0.012022 0.420325 
0.216587 -0.181283 -0.00190513 0.898509 -0.0314165 0.43783 
0.219681 -0.180179 -0.00775042 0.892273 -0.0579862 0.447758 
0.222503 -0.179172 -0.0135014 0.876838 -0.0108166 0.480665 
0.225964 -0.177953 -0.0193972 0.84371 0.0421954 0.535139 
0.229675 -0.176635 -0.0253346 0.832967 0.0040812 0.553308 
0.233992 -0.175128 -0.0313998 0.810491 0.00502662 0.585729 
0.238531 -0.173536 -0.0374933 0.792044 0.02542 0.609934 
0.243176 -0.171899 -0.0435843 0.785268 0.0134315 0.619011 
0.248314 -0.170114 -0.0497656 0.756581 0.0125096 0.65378 
0.253971 -0.168143 -0.0560422 0.747216 -0.00323233 0.664574 
0.259326 -0.166279 -0.06221 0.791427 -0.0292431 0.610564 
0.263408 -0.164844 -0.068039 0.849915 -0.0783959 0.521055 
0.266542 -0.163729 -0.0736162 0.904387 -0.138243 0.403698 
0.268612 -0.162984 -0.0789208 0.921569 -0.171311 0.348373 
0.270873 -0.162169 -0.0842536 0.953246 -0.134079 0.270823 
0.272008 -0.161752 -0.0893096 0.982417 -0.0549048 -0.178444 
0.269872 -0.16243 -0.0936123 0.918285 -0.108538 -0.380752 
0.267447 -0.163191 -0.0978569 0.93724 -0.198273 -0.286825 
0.266665 -0.163432 -0.10247 0.908107 -0.253075 -0.333608 
0.264139 -0.164247 -0.1067 0.734765 -0.237322 -0.635451 
0.258524 -0.166111 -0.110268 0.657813 -0.132048 -0.741515 
0.254278 -0.167507 -0.114153 0.557721 -0.0561375 -0.828128 
0.203817 -0.194237 0.0199628 0.83424 -0.0925831 0.543574 
0.208738 -0.192458 0.013525 0.833996 -0.0480751 0.549673 
0.213159 -0.190875 0.0072582 0.907006 -3.74257e-005 0.421119 
0.214202 -0.190477 0.00193583 0.949136 -0.00910773 0.314736 
0.216679 -0.189554 -0.00376112 0.904125 -0.00671203 0.427215 
0.219457 -0.188543 -0.00951701 0.873288 -0.0288137 0.486352 
0.224206 -0.186852 -0.0157695 0.816373 0.0122449 0.577395 
0.228104 -0.185456 -0.0217698 0.855162 0.0298219 0.517502 
0.231317 -0.184295 -0.027567 0.840036 -0.0179826 0.542232 
0.236286 -0.18253 -0.0337885 0.814819 -0.0863925 0.573242 
0.240686 -0.180961 -0.0398347 0.781579 -0.0226227 0.623396 
0.245428 -0.179275 -0.0459368 0.782747 0.0113239 0.622237 
0.250251 -0.177553 -0.052029 0.766676 -0.00845394 0.641978 
0.255783 -0.175612 -0.0582615 0.780139 -0.0449078 0.623992 
0.260266 -0.174011 -0.0642074 0.841414 -0.0877265 0.533223 
0.263438 -0.172862 -0.0698108 0.895022 -0.120382 0.42947 
0.265716 -0.172034 -0.0751796 0.928355 -0.137882 0.345176 
0.267579 -0.171332 -0.0804354 0.926693 -0.184066 0.327659 
0.270093 -0.170421 -0.0858248 0.957351 -0.282118 0.0623566 
0.268547 -0.170925 -0.0902658 0.932915 -0.281337 -0.224763 
0.267501 -0.171202 -0.0948266 0.93769 -0.204389 -0.281002 
0.26599 -0.171715 -0.099277 0.896132 -0.236252 -0.375676 
0.263251 -0.172559 -0.103466 0.821123 -0.281955 -0.496245 
0.260219 -0.173575 -0.107593 0.787934 -0.212767 -0.577832 
0.257168 -0.174588 -0.111727 0.646183 -0.164028 -0.745347 
0.248717 -0.177407 -0.114723 0.377804 -0.164055 -0.911236 
0.205085 -0.202172 0.0177597 0.860287 -0.0572203 0.506588 
0.208755 -0.200833 0.0116782 0.847685 -0.103845 0.520237 
0.213356 -0.199163 0.00536907 0.894179 -0.101905 0.435958 
0.215583 -0.19832 -0.000270568 0.898976 -0.00125771 0.437996 
0.218689 -0.197176 -0.00612589 0.896021 0.0781905 0.437072 
0.220631 -0.19644 -0.0116508 0.877075 0.0375763 0.478881 
0.225946 -0.194522 -0.0180419 0.819114 0.00203843 0.573627 
0.229172 -0.193338 -0.0238576 0.902807 -0.0351796 0.428604 
0.231684 -0.192401 -0.0294678 0.882066 -0.0429018 0.469167 
0.234381 -0.191399 -0.0351054 0.808487 -0.0155805 0.588307 
0.24231 -0.188572 -0.042036 0.747419 -0.00329738 0.664345 
0.247092 -0.186844 -0.0481376 0.792921 -0.0263598 0.608754 
0.251894 -0.185112 -0.0542131 0.785065 -0.0325618 0.618556 
0.256413 -0.183479 -0.0601888 0.828785 -0.0793443 0.553913 
0.260098 -0.182135 -0.0659347 0.87175 -0.134055 0.471255 
0.263059 -0.181043 -0.0714832 0.903074 -0.149951 0.402457 
0.265367 -0.180179 -0.0768567 0.954584 -0.198393 0.22228 
0.265769 -0.179982 -0.0817684 0.949033 -0.30997 0.0570436 
0.265819 -0.179911 -0.0865911 0.936268 -0.350047 0.0294675 
0.266473 -0.179626 -0.0915455 0.940046 -0.313193 -0.134996 
0.264468 -0.18027 -0.0958924 0.875108 -0.321576 -0.361628 
0.262106 -0.181041 -0.100164 0.844344 -0.300805 -0.443396 
0.259445 -0.181919 -0.104376 0.818822 -0.291591 -0.494474 
0.256468 -0.182912 -0.108527 0.732089 -0.311663 -0.605732 
0.251483 -0.184597 -0.112257 0.583703 -0.287388 -0.759407 
0.202035 -0.21174 0.0218434 0.875192 -0.0829175 0.476618 
0.206092 -0.210268 0.0156387 0.879591 -0.043659 0.473723 
0.208602 -0.20927 0.00987918 0.886509 -0.0576474 0.459105 
0.212279 -0.207894 0.00382581 0.862936 -0.113382 0.492429 
0.216664 -0.206308 -0.00238847 0.834527 -0.0679394 0.546762 
0.220909 -0.204715 -0.00854089 0.924205 -0.0349204 0.380296 
0.222108 -0.204237 -0.0138599 0.875654 -0.0292425 0.482052 
0.227643 -0.202212 -0.0202973 0.866604 0.0163284 0.498729 
0.229026 -0.201651 -0.0256287 0.905878 0.041853 0.421466 
0.233994 -0.199848 -0.0318603 0.782702 0.0570114 0.61978 
0.239656 -0.197758 -0.0382383 0.754575 0.0434989 0.654771 
0.243852 -0.196219 -0.0442117 0.814254 -0.0197733 0.580172 
0.248025 -0.194687 -0.0501516 0.797271 -0.036736 0.602502 
0.253349 -0.192722 -0.0563475 0.824174 -0.0837655 0.560107 
0.256725 -0.191481 -0.0620352 0.879375 -0.125865 0.459193 
0.259334 -0.190491 -0.067517 0.900163 -0.162526 0.404094 
0.262012 -0.189482 -0.0729958 0.935835 -0.196495 0.292579 
0.262831 -0.189139 -0.0780178 0.967569 -0.251423 0.024426 
0.262305 -0.189249 -0.0827198 0.960504 -0.275151 -0.0415166 
0.262466 -0.189142 -0.0875741 0.942459 -0.329768 -0.0549973 
0.261679 -0.189361 -0.0922077 0.917033 -0.358625 -0.174466 
0.260712 -0.189637 -0.0967998 0.896604 -0.324325 -0.301521 
0.258317 -0.190454 -0.101072 0.829799 -0.296696 -0.472658 
0.255235 -0.191423 -0.105207 0.747836 -0.309665 -0.587239 
0.250842 -0.192953 -0.109061 0.665156 -0.300807 -0.683435 
0.245946 -0.194623 -0.112827 0.643417 -0.27451 -0.714604 
0.20016 -0.220934 0.0256118 0.935418 -0.120562 0.332353 
0.202285 -0.220117 0.0199267 0.869576 -0.0683103 0.489051 
0.207206 -0.21826 0.0134864 0.866576 -0.0418361 0.497289 
0.209967 -0.217207 0.00766999 0.907866 -0.0289217 0.418262 
0.212197 -0.216332 0.0020172 0.891191 -0.098046 0.442905 
0.216462 -0.214712 -0.00416335 0.847815 -0.0990457 0.520961 
0.219414 -0.213603 -0.00996389 0.894272 -0.122173 0.430524 
0.223366 -0.21211 -0.0160072 0.783544 -0.0581181 0.618613 
0.229662 -0.209783 -0.0226315 0.885595 -0.0258078 0.463742 
0.231386 -0.209103 -0.0280408 0.884291 -0.0204206 0.46649 
0.235406 -0.207581 -0.0340207 0.783844 -0.0205815 0.620616 
0.240682 -0.205627 -0.0402884 0.800777 -0.0417965 0.597503 
0.245217 -0.20392 -0.0463392 0.817943 -0.0552458 0.57264 
0.249403 -0.202352 -0.0522733 0.841845 -0.107764 0.528852 
0.252738 -0.201113 -0.0579701 0.860834 -0.146071 0.487471 
0.256173 -0.199788 -0.0636719 0.88866 -0.116017 0.443648 
0.258472 -0.198903 -0.0690759 0.921916 -0.141331 0.360689 
0.260798 -0.198004 -0.0744691 0.9559 -0.240921 0.167964 
0.260942 -0.197867 -0.079336 0.959895 -0.276202 -0.0481065 
0.26033 -0.19805 -0.084018 0.948909 -0.288172 -0.128565 
0.259352 -0.19831 -0.0886181 0.922398 -0.328185 -0.203661 
0.258107 -0.198697 -0.0931545 0.91636 -0.346903 -0.199858 
0.257041 -0.199039 -0.0977303 0.87989 -0.343083 -0.328767 
0.254441 -0.199874 -0.101972 0.776276 -0.343501 -0.528585 
0.250455 -0.201259 -0.105914 0.700166 -0.350328 -0.622124 
0.246183 -0.202713 -0.109812 0.688423 -0.363349 -0.627736 
0.199129 -0.229823 0.0240528 0.833083 -0.114141 0.541244 
0.203534 -0.228127 0.0177343 0.835625 -0.079891 0.543459 
0.207271 -0.226697 0.0116312 0.874041 -0.0969183 0.476087 
0.210557 -0.225429 0.00567631 0.925662 -0.0678963 0.372209 
0.211988 -0.224814 0.000243064 0.887218 -0.0612733 0.457263 
0.217782 -0.222653 -0.00633623 0.892939 -0.0600846 0.44615 
0.218884 -0.222164 -0.0116432 0.896755 -0.047993 0.439918 
0.224555 -0.220008 -0.0181322 0.808258 -0.109664 0.578526 
0.228434 -0.218545 -0.0241185 0.867334 -0.130028 0.480442 
0.231501 -0.217344 -0.0298731 0.829735 -0.0812817 0.552208 
0.237817 -0.214976 -0.036428 0.802604 -0.101755 0.58777 
0.241407 -0.213609 -0.0422592 0.834551 -0.109969 0.539844 
0.245441 -0.212051 -0.0481782 0.856677 -0.130166 0.49916 
0.248481 -0.210913 -0.0538211 0.856892 -0.13607 0.497213 
0.252594 -0.209309 -0.0597093 0.841943 -0.137906 0.521645 
0.256537 -0.207804 -0.0655265 0.913512 -0.174255 0.367601 
0.257781 -0.207307 -0.0706728 0.96682 -0.232729 0.105339 
0.2573 -0.207373 -0.0754064 0.952869 -0.299332 -0.0493965 
0.257365 -0.207282 -0.0802602 0.94011 -0.336782 -0.0526412 
0.256942 -0.207371 -0.0849953 0.923289 -0.340975 -0.17684 
0.25527 -0.20789 -0.0894447 0.91103 -0.335546 -0.239652 
0.254278 -0.20821 -0.094046 0.908486 -0.333104 -0.252378 
0.252191 -0.20888 -0.0984069 0.803983 -0.337387 -0.489674 
0.248298 -0.210228 -0.102374 0.709507 -0.320008 -0.627849 
0.243575 -0.211882 -0.106175 0.663894 -0.338199 -0.666983 
0.239744 -0.213175 -0.110189 0.718065 -0.430692 -0.546706 
0.19253 -0.240864 0.029164 0.74135 -0.0842953 0.665804 
0.19904 -0.238376 0.0222299 0.788844 -0.111685 0.60436 
0.20365 -0.236611 0.0158635 0.85568 -0.156775 0.493186 
0.207122 -0.235232 0.00983664 0.869775 -0.165585 0.464837 
0.21055 -0.233892 0.00384839 0.890897 -0.0795471 0.447185 
0.213214 -0.232843 -0.00190972 0.855589 -0.0395343 0.516143 
0.217769 -0.231068 -0.00815249 0.877074 -0.0946666 0.470935 
0.220874 -0.229849 -0.0139814 0.872086 -0.0861903 0.481702 
0.223857 -0.228667 -0.0197568 0.826671 -0.0652336 0.558891 
0.228963 -0.226703 -0.0260578 0.862656 -0.0612424 0.502069 
0.231784 -0.225586 -0.0317424 0.853535 -0.12402 0.50606 
0.236183 -0.223876 -0.0378054 0.810374 -0.181332 0.557147 
0.24138 -0.221899 -0.0440368 0.823047 -0.153468 0.546847 
0.244876 -0.220531 -0.0498158 0.857104 -0.165907 0.487697 
0.248769 -0.219007 -0.0556686 0.860215 -0.159625 0.484303 
0.25165 -0.217884 -0.0612479 0.8934 -0.231019 0.385315 
0.253953 -0.216944 -0.06667 0.912675 -0.299955 0.277581 
0.255619 -0.216256 -0.0719223 0.94988 -0.310907 0.0326129 
0.254681 -0.216524 -0.0765498 0.930735 -0.327997 -0.161711 
0.253577 -0.216835 -0.0811393 0.927882 -0.352039 -0.122895 
0.253372 -0.216847 -0.0859324 0.91844 -0.356144 -0.172133 
0.251777 -0.217353 -0.090407 0.922341 -0.343157 -0.177565 
0.251329 -0.217449 -0.0951401 0.872242 -0.351336 -0.340231 
0.247797 -0.218681 -0.0991868 0.791743 -0.34999 -0.500649 
0.245111 -0.219577 -0.103433 0.679247 -0.298917 -0.670277 
0.236876 -0.222539 -0.106485 0.547126 -0.32146 -0.772863 
0.193965 -0.248941 0.0269108 0.769398 -0.0720491 0.634693 
0.199401 -0.246783 0.0202845 0.857635 -0.123219 0.49928 
0.201739 -0.245842 0.0145512 0.889279 -0.154915 0.43033 
0.205658 -0.244315 0.00840605 0.835874 -0.169346 0.522146 
0.21101 -0.242156 0.00189308 0.843518 -0.115184 0.524605 
0.214182 -0.240931 -0.00399268 0.890651 -0.115189 0.439854 
0.216718 -0.239895 -0.00969084 0.890673 -0.15215 0.42843 
0.220172 -0.238507 -0.0156109 0.810852 -0.0906451 0.578189 
0.22694 -0.235936 -0.0223621 0.856557 -0.102493 0.505771 
0.228796 -0.235124 -0.0278161 0.897238 -0.0515147 0.438532 
0.231536 -0.234022 -0.0334756 0.881125 -0.0359487 0.471516 
0.235675 -0.232411 -0.0394657 0.822252 -0.144133 0.55057 
0.240554 -0.230455 -0.0456178 0.838612 -0.158692 0.521101 
0.243566 -0.229325 -0.0512682 0.863874 -0.159865 0.477667 
0.247487 -0.227731 -0.0571284 0.890418 -0.200776 0.408467 
0.24939 -0.22693 -0.0624725 0.93283 -0.242786 0.266238 
0.250743 -0.226384 -0.0676655 0.933423 -0.331483 0.137264 
0.251374 -0.226003 -0.0726834 0.92647 -0.376356 -0.00306399 
0.250958 -0.226113 -0.0774397 0.926585 -0.348644 -0.141021 
0.249722 -0.226499 -0.0820056 0.910006 -0.36482 -0.196966 
0.248709 -0.226741 -0.0866278 0.908689 -0.384126 -0.163494 
0.247937 -0.227017 -0.0912939 0.875076 -0.383725 -0.294954 
0.244622 -0.228119 -0.0954006 0.85256 -0.290741 -0.434294 
0.242535 -0.228825 -0.0997846 0.695088 -0.318122 -0.64471 
0.235193 -0.231519 -0.103026 0.477586 -0.314732 -0.820278 
0.189065 -0.259498 0.031563 0.769745 -0.147365 0.621108 
0.194984 -0.257173 0.0247785 0.802332 -0.12923 0.58272 
0.199087 -0.255532 0.018535 0.874941 -0.151982 0.459761 
0.2022 -0.254257 0.0125903 0.881354 -0.118674 0.457309 
0.204711 -0.253212 0.00683239 0.861534 -0.172697 0.477426 
0.210264 -0.251028 0.000276469 0.833699 -0.169604 0.525528 
0.213281 -0.249793 -0.00556872 0.893246 -0.151521 0.423264 
0.216445 -0.248506 -0.0114305 0.858456 -0.0980763 0.503422 
0.221518 -0.246495 -0.017768 0.802147 -0.109379 0.587023 
0.224459 -0.245282 -0.0235221 0.8139 -0.17274 0.554732 
0.231612 -0.242495 -0.0303311 0.901752 -0.101342 0.420207 
0.232504 -0.242069 -0.035511 0.930236 -0.110582 0.349903 
0.235108 -0.240996 -0.0411092 0.847602 -0.112778 0.518509 
0.240424 -0.238905 -0.0473603 0.840676 -0.120093 0.528054 
0.243421 -0.237678 -0.0530094 0.891093 -0.156257 0.426072 
0.246176 -0.236557 -0.0585769 0.915723 -0.256753 0.309079 
0.247933 -0.2358 -0.0638853 0.944473 -0.318772 0.0797152 
0.247126 -0.236008 -0.0685694 0.933905 -0.355938 -0.0336111 
0.247393 -0.235823 -0.0735035 0.907313 -0.419131 -0.0333583 
0.247349 -0.235738 -0.0783593 0.870877 -0.462845 -0.165372 
0.245429 -0.236382 -0.0827767 0.872979 -0.449018 -0.190501 
0.244395 -0.236692 -0.0873995 0.904647 -0.394571 -0.161022 
0.244089 -0.236697 -0.0921879 0.955581 -0.249838 -0.15635 
0.243692 -0.236762 -0.0969498 0.76774 -0.213734 -0.604064 
0.235893 -0.239619 -0.100083 0.45232 -0.367043 -0.812826 
0.227451 -0.242708 -0.103111 0.461271 -0.398428 -0.79277 
0.217697 -0.246312 -0.105894 0.345051 -0.300535 -0.889167 
0.210931 -0.248767 -0.109357 0.561215 -0.542201 -0.625345 
0.188256 -0.268484 0.0299397 0.764686 -0.112064 0.634584 
0.194176 -0.266143 0.0231621 0.830777 -0.168994 0.530331 
0.197592 -0.264727 0.0171108 0.858401 -0.201528 0.471735 
0.202087 -0.262893 0.0107885 0.825864 -0.15835 0.541178 
0.225408 -0.253413 -0.0255638 0.815345 -0.231572 0.530648 
0.227945 -0.252316 -0.0311878 0.852841 -0.213325 0.476608 
0.232299 -0.250559 -0.0372479 0.862471 -0.173482 0.475445 
0.235794 -0.249158 -0.0430626 0.825355 -0.13619 0.547942 
0.240154 -0.247332 -0.0490743 0.886433 -0.241296 0.394985 
0.242098 -0.246543 -0.0544574 0.929277 -0.305648 0.207422 
0.242481 -0.246282 -0.0594523 0.920101 -0.380554 0.092696 
0.243457 -0.245805 -0.0645805 0.907012 -0.414948 0.0717449 
0.243887 -0.245588 -0.0695639 0.874218 -0.43221 -0.221219 
0.239994 -0.246912 -0.0735361 0.817033 -0.417116 -0.398084 
0.237918 -0.247654 -0.0779343 0.931685 -0.361487 -0.0359309 
0.240634 -0.246522 -0.0834382 0.894433 -0.444587 -0.0482934 
0.237988 -0.247419 -0.08771 0.797562 -0.452565 -0.398848 
0.23374 -0.248867 -0.0965036 0.417804 -0.410876 -0.810321 
0.22448 -0.25232 -0.0993476 0.587596 -0.440415 -0.678797 
0.220011 -0.253943 -0.103269 0.382103 -0.304339 -0.872568 
0.205505 -0.259328 -0.10507 0.637177 -0.497524 -0.588622 
0.201881 -0.26066 -0.109227 0.718763 -0.521747 -0.459522 
0.183025 -0.279261 0.0347013 0.759993 -0.176865 0.625403 
0.189294 -0.27674 0.0277964 0.799964 -0.151571 0.580589 
0.193199 -0.275104 0.0215849 0.878006 -0.196544 0.436436 
0.19588 -0.273975 0.0157403 0.89352 -0.219069 0.391956 
0.221683 -0.263222 -0.0264132 0.726974 -0.161475 0.667409 
0.228428 -0.260526 -0.0331078 0.863341 -0.28213 0.418383 
0.22956 -0.259964 -0.0383531 0.858907 -0.253177 0.445173 
0.235415 -0.257605 -0.0447588 0.886681 -0.282497 0.366049 
0.235848 -0.257352 -0.0497925 0.911857 -0.337299 0.233979 
0.238644 -0.256145 -0.0553963 0.933493 -0.325729 0.149973 
0.238131 -0.256275 -0.060178 0.930581 -0.359546 -0.0688847 
0.237867 -0.256267 -0.065019 0.91178 -0.410514 -0.0116158 
0.238195 -0.25602 -0.069996 0.910424 -0.407098 -0.0734834 
0.237852 -0.256071 -0.0748056 0.919289 -0.331179 -0.21267 
0.236013 -0.256665 -0.0792691 0.857494 -0.457685 -0.235006 
0.234523 -0.257161 -0.0838129 0.797598 -0.553145 -0.240558 
0.231543 -0.258218 -0.0880238 0.80455 -0.495925 -0.326738 
0.229902 -0.258723 -0.0925455 0.814783 -0.485286 -0.317217 
0.203952 -0.268458 -0.101595 0.539848 -0.378062 -0.752086 
0.197313 -0.270933 -0.105116 0.613921 -0.430711 -0.661505 
0.181553 -0.2885 0.0332558 0.747394 -0.195732 0.634895 
0.188045 -0.285849 0.0262918 0.815274 -0.232237 0.530465 
0.191744 -0.284278 0.0201404 0.884923 -0.22243 0.40919 
0.194134 -0.283212 0.0143736 0.915005 -0.219257 0.338663 
0.221037 -0.271929 -0.0280511 0.894686 -0.261607 0.362074 
0.222879 -0.27106 -0.0335029 0.854909 -0.266445 0.445126 
0.229724 -0.26832 -0.0401848 0.840059 -0.289852 0.45857 
0.231375 -0.267548 -0.0455429 0.891856 -0.360742 0.27287 
0.233907 -0.266433 -0.0511024 0.893097 -0.312499 0.323608 
0.236032 -0.265516 -0.0565406 0.932036 -0.36099 0.0315536 
0.234822 -0.265841 -0.0611662 0.927861 -0.346137 -0.138794 
0.234025 -0.266075 -0.0658847 0.897479 -0.389269 -0.207366 
0.232412 -0.266606 -0.0704117 0.846877 -0.482926 -0.22267 
0.231138 -0.266962 -0.0750231 0.750422 -0.510987 -0.419236 
0.2252 -0.269229 -0.078557 0.831297 -0.466398 -0.302356 
0.226842 -0.268446 -0.0838442 0.821205 -0.566661 -0.0672184 
0.225444 -0.268898 -0.0884306 0.739187 -0.590294 -0.324276 
0.221123 -0.270506 -0.0923691 0.646223 -0.608488 -0.460585 
0.172876 -0.300758 0.0390142 0.714731 -0.187831 0.673705 
0.180664 -0.297551 0.0316467 0.767777 -0.234767 0.596156 
0.185462 -0.295538 0.0251602 0.816773 -0.255977 0.517066 
0.190107 -0.293559 0.0187459 0.843707 -0.237579 0.481368 
0.217055 -0.282072 -0.0238431 0.893747 -0.280681 0.349907 
0.219628 -0.280927 -0.0294967 0.887969 -0.247965 0.38733 
0.223045 -0.279469 -0.0353415 0.868135 -0.253207 0.426881 
0.224649 -0.278704 -0.0407124 0.873894 -0.415376 0.252532 
0.227823 -0.277328 -0.0464553 0.86172 -0.398319 0.314295 
0.229963 -0.276377 -0.0519219 0.874588 -0.456223 0.164182 
0.230384 -0.276081 -0.0569579 0.903955 -0.404738 0.138032 
0.231796 -0.275433 -0.0622194 0.891113 -0.415544 -0.182318 
0.22832 -0.276696 -0.0663135 0.773181 -0.49643 -0.394649 
0.225665 -0.277613 -0.0706134 0.827483 -0.494833 -0.265354 
0.224727 -0.277888 -0.0753155 0.808288 -0.444097 -0.386585 
0.221171 -0.279172 -0.0794197 0.664032 -0.466038 -0.584697 
0.212918 -0.282333 -0.0824727 0.74058 -0.445256 -0.503278 
0.212212 -0.282511 -0.0872498 0.826804 -0.526168 -0.198854 
0.171997 -0.309927 0.0374001 0.743602 -0.228623 0.628321 
0.177999 -0.307326 0.0305342 0.78086 -0.309489 0.542654 
0.183577 -0.304964 0.02383 0.817524 -0.279721 0.5034 
0.187034 -0.303484 0.0177478 0.858416 -0.30264 0.414163 
0.213914 -0.291816 -0.0248455 0.886944 -0.312842 0.339795 
0.216394 -0.290702 -0.0304785 0.911036 -0.32051 0.259396 
0.217193 -0.290238 -0.035672 0.917786 -0.38244 0.106808 
0.22193 -0.288113 -0.0467954 0.88526 -0.425409 0.187995 
0.223169 -0.287499 -0.052055 0.870502 -0.446088 0.207921 
0.227456 -0.28568 -0.0580346 0.87895 -0.474757 -0.0453168 
0.222045 -0.287695 -0.0616803 0.775925 -0.54465 -0.318273 
0.221405 -0.287877 -0.0664658 0.829968 -0.500798 -0.245671 
0.219036 -0.288711 -0.0708492 0.772685 -0.541641 -0.331034 
0.216508 -0.289538 -0.0752078 0.767938 -0.556399 -0.317318 
0.214283 -0.290379 -0.0796319 0.732498 -0.435052 -0.523618 
0.209878 -0.291987 -0.0835789 0.740852 -0.411205 -0.531082 
0.205953 -0.293446 -0.0876463 0.72314 -0.4228 -0.546176 
0.167878 -0.32034 0.0366919 0.788402 -0.226295 0.572025 
0.173459 -0.31795 0.0299464 0.770909 -0.310172 0.55632 
0.180727 -0.314859 0.0227691 0.753132 -0.286543 0.592186 
0.207868 -0.302923 -0.0200847 0.868445 -0.305314 0.390624 
0.210974 -0.301533 -0.0259025 0.871737 -0.29029 0.394723 
0.2144 -0.30002 -0.0317784 0.894644 -0.243713 0.374455 
0.215631 -0.299266 -0.0420662 0.879439 -0.369246 0.300406 
0.217982 -0.298187 -0.0476211 0.88713 -0.370224 0.275562 
0.213112 -0.299662 -0.0663091 0.679712 -0.562749 -0.470431 
0.209073 -0.301183 -0.0703264 0.740431 -0.587294 -0.326876 
0.207134 -0.301852 -0.0748407 0.753531 -0.592833 -0.284148 
0.204525 -0.30277 -0.0792088 0.778097 -0.54774 -0.307484 
0.202824 -0.303352 -0.0837859 0.806897 -0.494941 -0.322415 
0.167022 -0.32956 0.0350688 0.841724 -0.257231 0.474693 
0.170139 -0.328094 0.0290093 0.826303 -0.313581 0.467857 
0.177431 -0.324967 0.0218263 0.731722 -0.295846 0.614051 
0.240748 -0.412588 0.0261221 -0.0918536 0.111313 -0.989531 
0.220218 -0.422128 0.0269546 -0.0502019 0.608074 -0.792291 
0.241699 -0.42399 0.0949268 0.889731 0.446135 -0.0966555 
0.241298 -0.423951 0.0899492 0.884328 0.458156 -0.0897645 
0.240587 -0.424099 0.0850788 0.836302 0.530199 -0.139597 
0.239521 -0.424365 0.0803189 0.782434 0.613343 -0.107738 
0.239173 -0.424332 0.075339 0.774482 0.630757 -0.0481929 
0.238891 -0.424252 0.0703423 0.792958 0.60663 -0.0567178 
0.238508 -0.424189 0.065379 0.786701 0.609299 -0.0992847 
0.237602 -0.424452 0.0605865 0.738193 0.659565 -0.141583 
0.236761 -0.424613 0.0557706 0.694043 0.715699 -0.0779723 
0.236315 -0.424605 0.0508398 0.655163 0.754469 -0.0392042 
0.23596 -0.424575 0.0458881 0.651504 0.7585 -0.0148752 
0.235934 -0.424342 0.0408403 0.682502 0.725427 0.0891487 
0.236751 -0.423749 0.0355566 0.753854 0.577409 0.313531 
0.24096 -0.421513 0.0293014 0.942214 0.328127 -0.0675652 
0.237542 -0.422908 0.0252588 0.528937 0.762652 -0.372274 
0.239843 -0.421618 0.0195856 0.852383 0.490957 0.18001 
0.2398 -0.421411 0.0145867 0.95331 0.234906 -0.189786 
0.237768 -0.422151 0.0101478 0.854466 0.2796 -0.437849 
0.234415 -0.422709 -0.0139098 0.605762 0.778116 -0.166095 
0.23299 -0.4232 -0.0185135 0.562457 0.785592 -0.257853 
0.218773 -0.426215 -0.104109 0.197102 0.93681 -0.289028 
0.215899 -0.427411 -0.108401 0.141184 0.980433 -0.13718 
0.215297 -0.42747 -0.113184 0.114328 0.993084 -0.0267007 
0.245792 -0.431057 0.0968962 0.941069 0.297229 -0.161381 
0.245013 -0.431222 0.0920497 0.950129 0.297444 -0.0937152 
0.244793 -0.431083 0.087024 0.949768 0.311371 -0.0314455 
0.244736 -0.430876 0.0819529 0.937423 0.346413 -0.0351718 
0.244586 -0.430733 0.0769192 0.929302 0.364932 -0.0567661 
0.244108 -0.430729 0.0719925 0.925497 0.366419 -0.0958762 
0.243483 -0.430819 0.0671174 0.926416 0.368493 -0.0772401 
0.243218 -0.430719 0.0621338 0.908076 0.416029 -0.0481541 
0.24286 -0.430662 0.0571835 0.881609 0.471203 -0.0270839 
0.242921 -0.430421 0.0521135 0.88424 0.466866 -0.012506 
0.242819 -0.430239 0.0470971 0.889123 0.455803 -0.041283 
0.24242 -0.430219 0.0421765 0.889287 0.457183 -0.012353 
0.242446 -0.429997 0.037136 0.905252 0.424748 0.0103404 
0.242217 -0.429865 0.0321736 0.967673 0.244062 0.0635878 
0.242146 -0.429679 0.0271726 0.977314 0.202066 -0.0634485 
0.242239 -0.429422 0.0221316 0.974944 0.221825 -0.0166612 
0.24143 -0.429596 0.0173526 0.989271 0.121208 -0.0815546 
0.241299 -0.42944 0.0123853 0.987919 0.14242 -0.061094 
0.241095 -0.429297 0.00744217 0.974224 0.225472 0.0070794 
0.240752 -0.42925 0.00254498 0.965513 0.237121 -0.107512 
0.240442 -0.429194 -0.00235596 0.991918 0.116584 -0.0500713 
0.240529 -0.428926 -0.00736112 0.999579 0.028931 -0.00238408 
0.240618 -0.42867 -0.012359 0.971835 0.233099 0.0346645 
0.240753 -0.42838 -0.017363 0.961511 0.264322 -0.0750364 
0.239999 -0.428527 -0.0221273 0.994278 -0.0609403 -0.0877309 
0.239833 -0.428394 -0.0270411 0.999734 -0.0098791 -0.0208313 
0.239563 -0.428296 -0.0319241 0.996225 0.0219846 -0.083983 
0.23903 -0.428353 -0.0367336 0.997212 0.0480938 -0.0570623 
0.238865 -0.428228 -0.0416322 0.99538 0.0863499 -0.041985 
0.238495 -0.42817 -0.0464774 0.989456 0.105561 -0.0991682 
0.237889 -0.428253 -0.0512584 0.984094 0.129903 -0.121176 
0.237223 -0.428367 -0.056022 0.982453 0.155113 -0.103563 
0.236864 -0.42832 -0.0608576 0.979107 0.16769 -0.115016 
0.236049 -0.428504 -0.0655798 0.963073 0.22896 -0.141658 
0.23527 -0.428655 -0.0703102 0.929488 0.348814 -0.119919 
0.234457 -0.428844 -0.0750287 0.885115 0.441736 -0.146426 
0.233718 -0.429005 -0.0797622 0.860323 0.492174 -0.132699 
0.232946 -0.429147 -0.084489 0.824383 0.547628 -0.143165 
0.232073 -0.429353 -0.08919 0.771281 0.624 -0.125499 
0.231272 -0.42953 -0.0939053 0.728556 0.682299 -0.0606191 
0.231176 -0.42936 -0.0987743 0.698127 0.700583 -0.147656 
0.229526 -0.429955 -0.103299 0.54821 0.833542 -0.0683643 
0.229523 -0.429734 -0.108183 0.446575 0.892341 0.0655619 
0.23022 -0.429189 -0.113207 0.535439 0.844521 0.00952109 
0.22905 -0.429555 -0.117831 0.675665 0.736883 0.0219191 
0.23038 -0.428684 -0.122974 0.696006 0.675239 0.244187 
0.246418 -0.439793 0.0999921 0.997577 0.0636723 -0.0280395 
0.246551 -0.439508 0.0948466 0.993918 0.0937218 -0.0578229 
0.24608 -0.439497 0.089902 0.99118 0.108138 -0.0765987 
0.245761 -0.439423 0.0849141 0.993738 0.0814925 -0.0764444 
0.24529 -0.439426 0.0799795 0.995399 0.0560087 -0.0777428 
0.244933 -0.439361 0.0750123 0.996585 0.0565782 -0.0601429 
0.244701 -0.439264 0.0700138 0.994909 0.0876652 -0.049709 
0.24442 -0.439173 0.0650341 0.990655 0.134555 0.022288 
0.244868 -0.438713 0.0598357 0.988782 0.149342 0.00280321 
0.244603 -0.438619 0.0548639 0.984821 0.142491 -0.0991199 
0.243647 -0.438861 0.0501054 0.985303 0.110065 -0.13063 
0.243325 -0.438807 0.0451602 0.995088 0.0934214 -0.0327328 
0.243337 -0.438553 0.0401184 0.994363 0.105473 -0.0108645 
0.243114 -0.438434 0.0351536 0.992786 0.08579 -0.0837576 
0.242542 -0.438491 0.030296 0.995693 0.0763512 -0.0525973 
0.242475 -0.438296 0.0252961 0.996702 0.0637091 -0.0502645 
0.241992 -0.438295 0.0204202 0.995161 0.0693488 -0.0696068 
0.241816 -0.438156 0.0154626 0.994168 0.103745 0.0294567 
0.242309 -0.437686 0.010323 0.985709 0.109714 0.127832 
0.243437 -0.43691 0.0050173 0.993177 0.0997408 -0.0604315 
0.242021 -0.437378 0.000421222 0.975254 0.0756312 -0.20775 
0.24106 -0.437613 -0.00430061 0.987762 0.0750397 -0.13673 
0.240545 -0.437654 -0.0091389 0.997765 0.0519469 -0.0420312 
0.240586 -0.437406 -0.0141233 0.997539 0.0313935 -0.0626975 
0.23981 -0.43754 -0.0188873 0.992269 0.0211916 -0.122287 
0.239466 -0.437516 -0.0237574 0.999116 0.0404006 0.0116056 
0.239957 -0.437045 -0.0288419 0.998667 0.0515401 0.00293195 
0.239553 -0.437014 -0.0336888 0.996737 0.0647843 -0.0481406 
0.23954 -0.436811 -0.0386289 0.996835 0.0794382 0.00291977 
0.239593 -0.436546 -0.0435818 0.995604 0.0845425 -0.0403077 
0.239172 -0.436548 -0.0484085 0.992949 0.0794744 -0.0879541 
0.238852 -0.43648 -0.0532576 0.992277 0.0927384 -0.0823793 
0.238372 -0.436492 -0.0580634 0.989533 0.124002 -0.0738106 
0.238024 -0.436476 -0.0628944 0.981913 0.185227 -0.0392018 
0.237888 -0.436286 -0.0677773 0.975048 0.221734 -0.0107466 
0.238199 -0.43591 -0.0727571 0.967871 0.250563 -0.021059 
0.237763 -0.435922 -0.0775544 0.9487 0.309444 -0.0649082 
0.237448 -0.435821 -0.08238 0.932172 0.355314 -0.0693271 
0.237126 -0.4358 -0.0871938 0.921386 0.387156 -0.0340255 
0.237147 -0.435563 -0.0920843 0.906624 0.421111 -0.0264317 
0.236904 -0.435431 -0.0969122 0.898295 0.436599 -0.0494774 
0.236458 -0.435468 -0.101686 0.869208 0.488304 -0.0776937 
0.236165 -0.43537 -0.106494 0.858686 0.512331 -0.0132371 
0.236238 -0.435108 -0.111374 0.887566 0.460658 -0.0045469 
0.235858 -0.435108 -0.11615 0.880618 0.471461 -0.0472991 
0.235723 -0.434913 -0.120979 0.893728 0.443207 0.0694159 
0.236244 -0.434485 -0.125932 0.973275 0.229582 0.00529002 
0.235392 -0.434687 -0.1306 0.983231 0.0258678 -0.180519 
0.247736 -0.448232 0.102865 0.981334 0.0888836 -0.170539 
0.246913 -0.448416 0.0980304 0.993808 0.0990656 -0.0503127 
0.247065 -0.448086 0.0928797 0.994632 0.0928682 -0.0456463 
0.246561 -0.448118 0.0879508 0.990406 0.0874729 -0.106978 
0.245924 -0.44819 0.0830664 0.990271 0.101704 -0.0949685 
0.245517 -0.44814 0.0781116 0.991611 0.111066 -0.0661185 
0.245292 -0.448037 0.0731077 0.994839 0.0995551 -0.0196182 
0.245403 -0.447733 0.0680022 0.992624 0.110759 0.0492994 
0.245826 -0.447293 0.0628093 0.995568 0.0933254 -0.0116174 
0.24527 -0.447341 0.0579248 0.997039 0.0635951 -0.0432368 
0.245373 -0.447032 0.0528418 0.989985 0.105937 -0.0933117 
0.244333 -0.447331 0.0481123 0.983606 0.136022 -0.118391 
0.244179 -0.447172 0.0431191 0.994536 0.102908 -0.0175359 
0.244277 -0.446878 0.0380566 0.994795 0.0830708 -0.059018 
0.243509 -0.447046 0.0332564 0.992505 0.0928412 -0.0794623 
0.243543 -0.446773 0.0282235 0.99518 0.0908878 -0.0368254 
0.24313 -0.446741 0.0233268 0.993826 0.102293 -0.0429656 
0.243054 -0.446558 0.0183399 0.993394 0.114587 -0.00623577 
0.243142 -0.446255 0.0133099 0.997568 0.0686119 -0.0123001 
0.242917 -0.446159 0.00837803 0.996597 -0.000487866 -0.0824281 
0.241914 -0.446426 0.00366422 0.99616 0.006158 -0.0873392 
0.242207 -0.446028 -0.00140443 0.996504 0.0709233 -0.0441457 
0.241595 -0.44613 -0.00621639 0.990938 0.102746 -0.086513 
0.241372 -0.446001 -0.0111324 0.994707 0.0961846 -0.0361399 
0.241204 -0.445847 -0.0160577 0.990878 0.0991281 -0.0912941 
0.240491 -0.445982 -0.0208331 0.988383 0.144593 -0.046814 
0.240608 -0.445674 -0.0258243 0.987869 0.153296 0.0248019 
0.240594 -0.445474 -0.0307716 0.991258 0.126439 -0.0376946 
0.240332 -0.445377 -0.0356513 0.991132 0.131724 -0.0174957 
0.240277 -0.445154 -0.0405803 0.991798 0.125252 -0.0254862 
0.240043 -0.445067 -0.045455 0.989092 0.101856 -0.106403 
0.239251 -0.445216 -0.0501905 0.990144 0.113007 -0.0827353 
0.239115 -0.445054 -0.055083 0.991593 0.128618 -0.0141575 
0.239216 -0.444798 -0.0600258 0.989113 0.13664 0.054633 
0.239809 -0.444255 -0.0650831 0.989016 0.14149 -0.0427588 
0.238782 -0.444549 -0.0697456 0.989332 0.116439 -0.0875494 
0.238813 -0.444314 -0.0746552 0.994093 0.105878 0.0238537 
0.239137 -0.443908 -0.0796287 0.991945 0.126254 -0.0102727 
0.238714 -0.443915 -0.0844204 0.989618 0.127349 -0.0666263 
0.238511 -0.443781 -0.0892606 0.983511 0.180425 -0.0123545 
0.238115 -0.443738 -0.0940535 0.982522 0.169419 -0.0771201 
0.238069 -0.443548 -0.0989178 0.993466 0.113987 -0.00567604 
0.238224 -0.443235 -0.103822 0.990432 0.122328 -0.0638714 
0.237385 -0.443442 -0.108504 0.988234 0.112467 -0.103655 
0.237074 -0.44338 -0.113297 0.993151 0.115104 -0.0200494 
0.237193 -0.443081 -0.118178 0.991186 0.114303 -0.0669762 
0.236408 -0.44327 -0.122863 0.993402 0.0673649 -0.0928162 
0.236156 -0.443164 -0.127657 0.996072 0.0556322 -0.0688907 
0.235752 -0.443119 -0.132417 0.991643 0.103086 -0.0775725 
0.248134 -0.456903 0.100935 0.957925 0.2772 0.0744271 
0.248259 -0.456613 0.0957933 0.962808 0.266718 -0.0431617 
0.247702 -0.456637 0.0908779 0.965015 0.251017 -0.0757464 
0.247352 -0.456557 0.0858997 0.962831 0.264667 -0.0539267 
0.247307 -0.456372 0.0808337 0.971309 0.225955 -0.074179 
0.246789 -0.456365 0.0759183 0.970245 0.232689 -0.0669428 
0.246288 -0.456356 0.0710023 0.974155 0.222741 -0.0375262 
0.246567 -0.456 0.0658522 0.988866 0.146805 -0.0243494 
0.245951 -0.456056 0.0609823 0.98777 0.141256 -0.0660146 
0.24583 -0.45589 0.0559675 0.990363 0.138226 0.00866564 
0.246151 -0.455489 0.0508238 0.990631 0.129374 -0.0437412 
0.245578 -0.455505 0.0459534 0.979736 0.151433 -0.131092 
0.244659 -0.455749 0.0411936 0.988438 0.120115 -0.0925318 
0.244721 -0.45547 0.0361448 0.995178 0.078135 -0.0592959 
0.244285 -0.455434 0.0312473 0.994729 0.0806089 -0.0633811 
0.243911 -0.455415 0.0263398 0.997047 0.067775 -0.0361126 
0.244115 -0.455059 0.0212681 0.998675 0.0299508 -0.0418514 
0.243623 -0.455052 0.0164008 0.995697 0.0282509 -0.0882603 
0.242857 -0.455212 0.0116166 0.996544 0.0481283 -0.0676994 
0.24297 -0.454893 0.00658747 0.998275 0.0485004 -0.0330886 
0.242809 -0.454755 0.00164426 0.997967 0.0637091 0.00195598 
0.242834 -0.454512 -0.00334506 0.997196 0.043088 -0.0611773 
0.242431 -0.454461 -0.00821439 0.996695 0.0484962 -0.0651702 
0.242039 -0.454445 -0.0130792 0.996975 0.0583241 -0.0513812 
0.241904 -0.454271 -0.0180102 0.998862 0.0461687 -0.0119239 
0.242243 -0.453853 -0.0230602 0.994023 0.0936927 0.0560357 
0.242209 -0.453646 -0.0280037 0.989182 0.141932 -0.0370869 
0.241633 -0.453684 -0.0328042 0.980779 0.194718 -0.0125343 
0.241856 -0.453353 -0.0378019 0.985294 0.165802 -0.0412875 
0.24151 -0.453294 -0.0426505 0.991266 0.0791288 -0.105498 
0.240907 -0.453339 -0.0474331 0.994626 0.088711 -0.0533721 
0.240959 -0.453104 -0.05237 0.991617 0.125781 -0.0295891 
0.240584 -0.453062 -0.0571983 0.992948 0.105814 -0.0534642 
0.240361 -0.452918 -0.0620613 0.997025 0.0757628 -0.0141688 
0.240243 -0.45278 -0.0669398 0.99522 0.0690303 -0.0690821 
0.239863 -0.452712 -0.0717561 0.99533 0.0837993 -0.0479061 
0.23968 -0.452583 -0.0766113 0.99844 0.0543631 -0.0127075 
0.239723 -0.452337 -0.081514 0.997961 0.046004 -0.0442534 
0.239218 -0.45232 -0.0862894 0.994305 0.0686988 0.0814721 
0.240841 -0.451305 -0.0915355 0.99458 0.0822291 -0.0636363 
0.238923 -0.452049 -0.0959804 0.975684 0.0656145 -0.20913 
0.238303 -0.452098 -0.100718 0.99446 0.0918223 -0.0511653 
0.238326 -0.451894 -0.105588 0.996042 0.0664987 -0.0589829 
0.238016 -0.451798 -0.110385 0.996389 0.0801875 -0.0279166 
0.23798 -0.451585 -0.115235 0.996006 0.0748113 -0.0487381 
0.23752 -0.451627 -0.119987 0.991077 0.0463975 -0.124952 
0.236886 -0.451664 -0.124707 0.996486 0.0539634 -0.0640543 
0.236847 -0.451484 -0.12954 0.997643 0.0423729 -0.0539704 
0.236525 -0.451414 -0.134312 0.997222 0.0328297 -0.0668653 
0.248332 -0.464211 0.0685791 0.875278 0.465891 -0.129747 
0.247872 -0.464187 0.0636618 0.891124 0.4511 -0.0490617 
0.247997 -0.463867 0.0585696 0.903551 0.426105 -0.0450632 
0.247246 -0.464031 0.0537542 0.906851 0.415184 -0.0724132 
0.246949 -0.463914 0.0488003 0.919949 0.38835 -0.0536535 
0.246832 -0.463733 0.0438003 0.907807 0.406757 -0.10215 
0.245769 -0.464037 0.0390859 0.882482 0.441848 -0.161232 
0.244897 -0.464209 0.0343139 0.90102 0.425768 -0.0829689 
0.245016 -0.463925 0.0292599 0.905339 0.421094 -0.0551566 
0.244142 -0.464113 0.024496 0.901714 0.393181 -0.17978 
0.243133 -0.464362 0.0197716 0.930307 0.366215 -0.0203651 
0.244119 -0.463639 0.0144889 0.92055 0.386425 0.0571308 
0.243692 -0.463588 0.00960888 0.920715 0.374092 -0.111082 
0.24299 -0.4637 0.00481106 0.940793 0.33726 -0.0341213 
0.243275 -0.463328 -0.000253364 0.942908 0.327294 -0.0616774 
0.242186 -0.463612 -0.00494015 0.945344 0.312832 -0.0919859 
0.242502 -0.463229 -0.0100005 0.9507 0.30963 0.0172682 
0.242203 -0.463135 -0.014891 0.942512 0.307859 -0.129976 
0.241171 -0.463399 -0.0195845 0.961562 0.274232 0.0139768 
0.242643 -0.462436 -0.0249277 0.950239 0.239219 0.199551 
0.243258 -0.461873 -0.0300381 0.968885 0.23013 0.09112 
0.244045 -0.461238 -0.0351816 0.974392 0.207301 -0.0870967 
0.242186 -0.461945 -0.0396457 0.936911 0.208443 -0.280625 
0.241007 -0.462286 -0.0442853 0.96556 0.244461 -0.0890668 
0.241358 -0.461882 -0.0493016 0.966462 0.254411 0.035033 
0.241187 -0.461728 -0.0541833 0.966061 0.250823 -0.0617583 
0.240768 -0.461696 -0.059 0.966571 0.254839 -0.0282424 
0.240802 -0.461467 -0.063919 0.965613 0.257618 -0.0350043 
0.240329 -0.461445 -0.0687156 0.977174 0.183585 -0.106897 
0.240169 -0.461287 -0.0735804 0.989261 0.137523 -0.0495086 
0.239671 -0.461323 -0.0783599 0.984588 0.174241 -0.0150674 
0.239821 -0.460988 -0.0832882 0.977536 0.21018 0.0157678 
0.23974 -0.46081 -0.0881541 0.985246 0.162624 -0.0533352 
